ply
            format ascii 1.0
element vertex 1232
            property float x
            property float y
            property float z
            property uchar red
            property uchar green
            property uchar blue
            end_header
4.755894 -0.244627 1.926877 255 245 234
6.150518 0.337231 1.654526 255 227 213
6.118248 -0.546743 1.631857 67 60 54
6.188979 0.008995 1.639368 104 74 72
5.818388 0.722912 1.750376 103 94 89
4.901627 -0.091669 1.894646 234 220 209
5.843726 -0.092427 1.711872 230 200 189
5.852274 -0.709734 1.683835 98 80 76
6.043495 -0.382349 1.661205 238 221 214
5.959986 -0.702172 1.663656 228 219 214
6.006529 -0.151717 1.675340 64 50 49
5.708319 0.487023 1.760736 253 250 241
5.697281 -0.784205 1.710440 245 223 212
5.485801 -0.485136 1.768637 236 209 198
5.181496 -0.441804 1.838387 110 104 106
5.251020 0.240944 1.862474 225 208 201
5.096035 0.081558 1.879131 255 248 238
6.119801 0.562070 1.668877 255 245 233
5.569041 0.276521 1.787744 211 174 165
6.233917 0.578251 1.650173 186 153 146
6.032008 0.242807 1.674552 231 216 209
5.874735 0.957951 1.736769 60 59 57
5.691933 0.479201 1.766606 50 31 27
5.295490 0.235125 1.848303 108 93 86
4.833173 0.555107 1.935707 255 246 240
5.748097 0.645618 1.757314 246 243 236
5.626953 -0.100617 1.759350 247 224 216
5.922242 -0.698685 1.667377 255 240 232
5.903181 0.883183 1.738026 60 50 49
5.821082 -0.377624 1.695822 243 223 214
6.038849 -0.222759 1.660879 255 237 234
5.132976 0.472792 1.879086 76 62 61
5.080991 -0.165662 1.875311 93 72 67
5.792942 0.639102 1.746248 108 91 81
5.181159 -0.440666 1.834775 110 104 106
5.988564 0.961539 1.720996 71 63 61
4.844558 -0.490414 1.909810 76 65 59
5.613198 0.722854 1.791306 254 255 255
5.555995 0.251531 1.780720 231 197 187
5.386621 0.061050 1.823766 250 222 210
5.830683 -0.392245 1.708731 99 85 74
5.281797 0.319412 1.855581 251 246 243
5.963564 0.958866 1.723256 76 64 68
6.119919 -0.222429 1.639860 255 241 231
5.947207 0.723698 1.716422 92 78 75
5.909984 -0.380871 1.684496 241 221 214
6.210942 0.008561 1.630508 100 81 75
6.185243 0.177839 1.644940 244 224 215
4.741901 0.024684 1.935998 248 238 228
5.550831 -0.076730 1.778164 97 84 76
6.181596 0.576370 1.664005 239 229 219
6.042518 -0.376053 1.651920 203 180 174
4.901232 0.789868 1.925748 239 232 222
6.016006 0.892290 1.708617 242 238 229
5.526818 0.011447 1.791677 237 217 206
5.003664 0.000026 1.889130 255 248 239
5.784892 -0.779978 1.686538 228 208 199
5.244796 0.785091 1.860317 224 180 169
5.465110 0.324561 1.810905 255 249 246
5.701029 0.559626 1.758281 92 79 71
4.989500 -0.000567 1.894216 255 250 240
5.510871 0.900201 1.814491 78 67 75
6.226232 0.087677 1.615000 247 225 214
6.019040 0.806415 1.708167 75 64 60
5.364222 -0.465904 1.797010 224 205 198
6.121409 0.725766 1.682320 81 65 65
5.465463 -0.544333 1.775268 235 218 208
5.402554 -0.112896 1.807454 107 92 97
5.274785 -0.469777 1.809676 253 239 230
5.514987 0.550587 1.800858 223 211 197
6.055547 0.335214 1.678633 244 241 234
5.442267 -0.630669 1.775992 237 218 212
5.512193 0.088840 1.797419 255 254 244
5.886956 0.715382 1.719643 228 194 185
4.845879 0.148037 1.930072 100 82 82
5.849563 -0.858192 1.668734 212 196 196
4.977729 -0.239240 1.887279 255 254 240
5.263924 -0.316353 1.835955 253 236 229
6.054359 -0.239975 1.656480 229 204 197
5.490173 -0.231018 1.787791 255 247 240
5.220704 0.401876 1.863165 255 249 242
4.992863 0.791147 1.913475 232 217 210
4.836171 -0.016815 1.936526 234 206 194
4.844558 -0.490414 1.909810 76 65 59
5.550831 -0.076730 1.778164 97 84 76
5.834011 0.493094 1.735088 88 78 79
5.618013 0.380782 1.780256 255 254 252
6.065108 -0.244155 1.655117 112 100 100
5.642648 -0.321439 1.750422 255 232 225
5.645516 0.397240 1.766725 109 95 86
5.183340 -0.002788 1.858831 76 65 59
5.583962 -0.321501 1.762540 242 214 203
6.069986 0.008225 1.667436 90 75 72
5.639289 0.789831 1.780945 255 248 231
5.269726 -0.004483 1.845128 58 43 40
5.843926 0.028940 1.718774 116 104 106
5.782316 -0.236247 1.720869 249 222 211
5.172823 0.322357 1.874474 240 226 217
5.162472 0.321099 1.873403 255 247 240
5.690003 0.010344 1.749730 243 226 219
5.249922 -0.236233 1.836511 255 250 241
4.734850 -0.101436 1.939548 230 212 202
6.013614 0.237890 1.678542 158 131 124
5.733614 -0.352702 1.728539 255 253 250
5.080038 -0.238491 1.869576 243 224 217
5.160231 0.398973 1.873619 255 245 239
5.395456 -0.154741 1.806539 255 247 240
4.982208 0.475698 1.907930 255 255 241
5.026531 0.633824 1.906588 255 255 248
4.990136 -0.331331 1.879161 250 227 213
5.291699 0.426479 1.851683 121 107 107
5.052543 -0.165207 1.876969 92 73 69
4.845609 -0.238402 1.911441 243 235 224
6.177274 -0.036127 1.638234 244 209 203
6.189647 -0.461003 1.627691 227 216 210
5.990929 0.887945 1.709009 229 228 223
5.837071 0.250894 1.730932 244 219 214
6.080986 -0.556308 1.635572 229 210 206
5.078892 -0.017033 1.875607 87 71 71
6.009749 0.637413 1.692444 247 214 207
5.804169 0.568780 1.739797 237 227 215
5.480675 0.878455 1.817967 237 229 218
4.931775 0.226197 1.915845 255 232 224
6.181635 -0.180822 1.635555 98 92 94
6.027837 0.890984 1.708749 223 222 217
4.902478 0.700086 1.921000 230 190 182
5.960119 0.728980 1.710711 244 226 216
5.684976 0.480933 1.763796 83 72 66
5.412235 -0.235560 1.808802 255 249 244
4.641149 -0.080533 1.957497 145 131 130
6.126609 0.240689 1.647493 255 237 226
5.766057 0.081598 1.739274 68 55 46
6.138495 -0.072524 1.627870 242 220 207
6.177942 -0.298854 1.636903 246 237 230
5.838313 -0.226915 1.714299 228 212 212
5.609174 0.246817 1.784538 255 250 243
5.189445 0.192719 1.868860 104 88 88
4.765757 0.222841 1.941090 208 183 176
5.105379 0.631018 1.892955 110 95 92
5.179367 0.077073 1.863563 236 233 228
5.984965 -0.375830 1.657238 233 215 211
6.049950 0.466861 1.677627 240 222 220
5.060079 0.001996 1.880828 226 211 204
5.956985 -0.638544 1.668015 197 168 162
5.793132 -0.383805 1.710675 255 242 238
5.462712 -0.161324 1.795862 76 56 49
6.095876 -0.154286 1.647159 255 248 231
6.074732 0.888880 1.692041 228 227 222
5.661533 -0.160881 1.746373 218 190 179
5.581502 -0.465435 1.748602 244 230 221
5.395427 -0.641283 1.779207 255 252 245
5.931350 0.795259 1.716156 244 202 186
6.055855 0.650548 1.691978 231 231 229
5.469645 -0.071467 1.801777 244 221 213
5.294118 -0.169444 1.827590 144 134 135
6.203914 0.482701 1.646961 232 209 201
5.273118 0.795545 1.863965 233 226 220
5.364732 -0.723158 1.794447 94 87 77
5.852380 -0.066105 1.709157 255 252 246
5.610836 -0.714849 1.736384 96 79 72
5.478157 0.170800 1.808699 234 216 212
5.564804 0.718618 1.797296 252 251 249
5.869977 -0.236153 1.695590 255 244 233
6.168878 0.085276 1.639420 201 173 162
5.457654 -0.800821 1.754146 99 93 81
5.570160 -0.078191 1.784418 88 74 65
4.986192 0.153044 1.893184 100 86 83
5.766722 0.084491 1.738793 173 167 155
6.121526 0.730760 1.678205 237 226 220
5.443713 0.799106 1.823979 255 255 255
5.502126 0.320489 1.814754 235 232 227
5.846947 -0.746946 1.679831 87 70 76
6.196143 -0.222147 1.629896 243 223 214
5.961493 -0.222006 1.682025 235 230 224
5.955081 0.793868 1.701360 219 181 172
4.959219 0.345421 1.910090 86 65 74
5.679234 -0.707604 1.721633 247 227 220
5.900934 -0.700870 1.671936 245 237 226
6.233917 0.578251 1.650173 186 153 146
4.837430 0.142971 1.926324 248 219 211
4.738473 0.202256 1.943940 150 146 145
5.184198 -0.140419 1.857686 145 136 141
5.963513 -0.478445 1.666569 223 200 192
5.808894 -0.001139 1.729334 226 198 187
5.609724 -0.077712 1.773000 101 83 73
5.291545 0.449933 1.854819 101 89 93
6.159905 -0.380038 1.630674 247 230 222
5.976021 0.723199 1.708497 80 66 65
5.209982 0.150846 1.861627 255 222 213
5.746907 0.885800 1.761537 213 199 196
5.468470 -0.151828 1.796375 255 238 231
5.575012 0.485256 1.795050 253 236 226
4.825385 0.235823 1.948949 255 252 241
5.786250 -0.859315 1.682743 237 223 220
5.266078 0.234120 1.852642 103 85 81
5.930376 0.802223 1.724737 104 86 86
5.998079 0.162421 1.682918 237 211 198
5.688115 0.408934 1.765146 232 228 219
5.512662 0.894472 1.806707 222 199 191
5.063142 0.558045 1.896603 251 252 244
5.975878 0.723259 1.708232 80 66 65
5.068781 0.446689 1.892902 101 89 91
5.155250 0.539947 1.875090 171 138 133
6.152656 0.729713 1.660206 253 243 241
5.849127 -0.154889 1.714060 57 46 42
5.727892 -0.400153 1.727961 235 205 197
5.849331 0.647882 1.733780 251 228 222
6.127889 0.085219 1.650670 225 202 194
6.012859 -0.459742 1.657258 255 251 243
5.727478 0.173139 1.746959 218 183 181
5.108486 0.545867 1.883986 243 219 209
5.741271 0.722103 1.765643 129 114 109
5.172411 0.482712 1.877677 226 219 213
5.093256 -0.078536 1.876197 253 241 229
5.389432 -0.309456 1.805823 253 254 248
5.630209 0.321110 1.781896 101 84 77
5.975860 0.484888 1.700465 88 73 68
5.153340 -0.551809 1.833184 234 209 202
6.208317 0.086987 1.631386 215 192 186
5.475739 0.790038 1.821438 123 103 94
5.275338 -0.563426 1.808339 213 184 176
5.627123 -0.274069 1.757984 73 60 69
5.898077 0.802926 1.732954 92 78 75
5.840587 0.483166 1.731825 113 98 91
6.131124 -0.152786 1.633044 255 244 228
6.161088 0.246803 1.651145 104 93 89
5.910845 0.955689 1.723800 78 72 74
5.400555 -0.135801 1.815575 255 245 237
5.074624 -0.255510 1.863622 212 180 169
5.814063 -0.865970 1.686759 223 205 201
5.626459 -0.280328 1.756240 85 74 78
5.606873 -0.705518 1.730020 255 250 245
5.075554 -0.324559 1.867593 225 220 214
6.069693 -0.582914 1.638332 255 235 229
5.849127 -0.154889 1.714060 57 46 42
6.229578 0.018720 1.634768 255 252 244
5.835816 0.317479 1.725081 210 180 172
5.781538 0.078240 1.728003 233 203 193
6.064972 -0.461197 1.653119 244 234 225
5.580223 0.643999 1.786568 255 241 231
5.286947 -0.017032 1.844614 227 199 177
6.134198 0.176464 1.657624 253 239 230
5.846677 -0.735967 1.681026 57 47 46
6.035506 0.088805 1.670145 96 82 79
5.846677 -0.735967 1.681026 57 47 46
5.028895 0.630649 1.909214 93 74 76
5.207097 0.163010 1.866563 250 239 233
5.882902 0.251162 1.713040 249 234 227
5.179905 0.479847 1.876832 224 223 218
5.732974 -0.496514 1.718759 241 236 233
5.503506 0.273090 1.801362 255 254 248
6.260580 0.166968 1.629853 236 206 195
6.000206 -0.073159 1.667213 248 226 215
5.690287 -0.307864 1.742295 255 251 241
5.214044 0.481793 1.864290 201 174 165
5.078948 -0.037424 1.877231 106 90 91
5.132540 0.948277 1.881510 251 253 252
5.501737 0.554329 1.805814 83 69 68
5.075554 -0.324559 1.867593 225 220 214
6.071426 0.486677 1.680941 94 79 76
5.671152 -0.389395 1.747449 255 243 235
5.629507 -0.447075 1.742250 245 216 210
4.943707 -0.395061 1.874923 225 212 203
5.071733 -0.636687 1.856319 255 246 238
5.129788 -0.475079 1.841692 246 232 223
5.045042 0.635592 1.906220 255 253 247
4.796188 0.395226 1.940489 246 242 231
6.173156 -0.072945 1.633664 255 251 241
6.015111 0.162952 1.670506 255 250 234
4.944173 0.463798 1.907041 255 243 238
5.865541 -0.553894 1.690932 95 77 73
6.121739 -0.062591 1.647676 255 249 242
5.201081 -0.474875 1.832954 255 251 238
5.289893 -0.170700 1.835722 255 250 244
4.979532 0.942605 1.918451 50 38 40
5.979600 0.172007 1.687940 255 252 246
4.870623 -0.328150 1.891802 64 55 46
5.816504 0.808859 1.752149 228 219 214
5.838823 0.858255 1.746804 97 82 89
5.625940 0.381417 1.776868 255 249 231
6.012955 -0.074929 1.668971 221 188 181
4.854894 -0.481594 1.898394 250 230 229
5.640168 -0.399979 1.738457 255 230 225
4.917547 0.304135 1.908373 224 191 186
5.940460 -0.779848 1.655737 242 225 217
5.257030 0.080420 1.846777 242 237 231
5.845185 0.884262 1.748532 123 122 118
6.175601 0.256591 1.648218 245 234 228
6.196527 0.257026 1.639450 255 237 225
5.363607 0.952645 1.851672 60 52 49
5.621835 -0.124395 1.761040 71 54 60
5.530431 0.002193 1.785378 69 54 47
6.078345 -0.709889 1.635245 84 71 65
6.242905 0.492615 1.631758 241 234 228
5.106830 0.786109 1.897854 255 246 239
5.196467 0.163170 1.863495 233 224 215
4.912276 -0.491979 1.879509 248 224 212
6.176533 -0.160830 1.636562 229 228 226
5.197361 0.873936 1.880108 215 208 200
6.164652 0.256706 1.651318 250 231 225
5.722372 0.643242 1.767271 245 241 240
4.725945 -0.177792 1.929797 223 203 196
5.176948 -0.447369 1.835077 237 219 205
6.213907 -0.318347 1.635523 201 181 174
5.788418 -0.703004 1.685301 82 69 63
5.176558 -0.393104 1.841575 201 188 180
5.587872 0.011436 1.774224 230 207 199
4.959227 0.345369 1.909753 86 65 74
5.977705 0.171324 1.694603 255 252 246
5.157681 0.638361 1.880308 255 254 255
6.202843 -0.469939 1.623620 112 105 95
5.583953 0.473612 1.785062 227 192 186
5.386350 -0.166406 1.810589 255 248 234
5.305056 -0.488080 1.808156 219 200 186
5.130476 -0.089571 1.858763 218 189 181
5.871261 0.079600 1.712403 248 232 217
5.302616 0.942973 1.853360 212 192 185
6.232251 -0.461414 1.618640 255 250 244
5.649660 0.717664 1.782165 148 143 137
5.996426 0.558786 1.692252 249 220 212
5.679757 0.639583 1.774974 91 76 71
5.532362 -0.067547 1.784960 189 146 139
4.739091 0.488974 1.948946 138 134 133
5.815621 0.726465 1.737390 255 254 238
5.736599 -0.199707 1.732685 125 116 119
5.792596 0.800378 1.753496 80 66 65
5.387990 0.007180 1.818065 253 242 236
5.867282 0.960267 1.742899 109 97 99
5.056286 0.794655 1.908039 243 235 232
4.777921 0.551203 1.945870 253 244 235
5.106628 -0.635824 1.842933 255 241 229
5.400217 -0.632854 1.774966 102 92 83
5.733717 -0.337407 1.731287 245 237 234
5.990140 0.810783 1.711649 233 224 217
6.069986 0.008225 1.667436 90 75 72
4.636359 -0.054372 1.952986 235 225 213
5.956777 -0.498653 1.669618 49 33 44
5.926576 0.414107 1.707604 133 100 93
5.302853 0.881956 1.858357 234 215 209
6.056057 0.681790 1.684667 142 132 133
4.609805 0.151806 1.964726 255 254 247
5.274832 0.717331 1.860696 208 205 198
5.378017 -0.166287 1.811386 255 241 228
6.059546 0.359981 1.676000 80 65 72
5.431384 -0.622903 1.772139 222 202 195
5.400217 -0.632854 1.774966 102 92 83
5.612254 0.487821 1.785577 255 237 233
5.867474 0.722249 1.736820 88 62 63
5.910522 0.806636 1.723083 249 245 242
5.095700 0.474844 1.886315 243 239 236
5.231236 0.717739 1.871425 255 254 255
6.054359 -0.239975 1.656480 229 204 197
5.934372 0.599539 1.704401 255 243 223
5.743961 -0.166664 1.735795 236 213 207
5.951244 -0.000502 1.694130 212 211 209
5.014905 -0.080102 1.888051 255 254 248
5.383546 -0.557171 1.785580 65 48 40
5.797518 0.804912 1.744025 246 233 227
4.955924 0.304383 1.911450 217 194 186
5.464372 -0.163458 1.789900 255 233 221
5.270914 -0.245885 1.832209 219 187 174
5.862455 -0.711294 1.667246 217 195 182
5.078128 -0.050821 1.874316 136 123 130
5.076126 0.306372 1.879272 229 200 192
6.174374 -0.537031 1.624776 228 218 209
5.068781 0.446689 1.892902 101 89 91
5.706084 -0.782029 1.703926 255 251 241
5.088617 0.002287 1.872962 255 246 242
5.060915 -0.168526 1.888881 109 90 84
4.952531 0.319827 1.913880 255 252 244
6.174471 0.006408 1.643674 104 69 75
4.955344 0.151529 1.911252 97 79 79
5.079039 -0.061035 1.873603 110 89 98
5.841272 -0.083224 1.716816 96 76 75
6.170442 0.310625 1.648713 130 120 121
5.692037 0.723883 1.771917 255 254 253
5.411048 -0.577107 1.785501 240 240 240
5.079039 -0.061035 1.873603 110 89 98
5.284705 -0.639171 1.806495 98 85 77
5.307299 0.869005 1.862049 223 186 180
5.405180 0.345687 1.831578 255 243 240
5.502498 -0.787908 1.751389 255 252 243
6.158852 -0.055786 1.642220 224 202 191
6.180207 -0.197965 1.633061 107 89 87
5.077747 -0.526212 1.854027 111 96 101
5.514716 0.551902 1.802221 234 220 209
5.834458 0.854512 1.748411 217 215 216
5.961774 -0.150402 1.686339 106 93 87
5.851595 -0.536175 1.685950 240 217 211
6.236265 0.575880 1.656734 255 248 235
4.678019 0.616962 1.959380 239 214 207
4.752810 0.380713 1.946634 236 214 201
6.089153 -0.381459 1.646802 255 245 242
5.854635 -0.871272 1.672091 90 72 68
5.867595 0.801408 1.735806 70 58 58
6.038411 -0.310724 1.663503 69 56 50
4.969133 0.713570 1.921912 238 239 234
6.078864 0.165621 1.663613 94 79 72
5.618405 0.366206 1.778489 238 234 231
5.176277 0.512618 1.873651 223 204 197
6.172091 0.443841 1.655633 112 98 98
5.618132 0.373484 1.780161 251 245 245
5.832550 -0.785606 1.685402 116 105 99
5.441210 0.313994 1.813673 255 241 234
5.070586 0.795758 1.910244 246 242 243
6.065278 -0.744926 1.633603 255 253 253
6.054712 -0.547407 1.648632 71 61 60
5.757273 0.961699 1.767313 237 239 236
5.665771 0.636263 1.772179 62 39 33
5.512541 -0.174621 1.790328 226 224 225
5.046637 -0.006091 1.873449 62 48 45
6.059815 0.561380 1.682138 248 223 216
5.186821 -0.244724 1.855903 98 80 78
5.791337 0.010443 1.726714 255 251 245
5.721335 0.251724 1.749928 226 213 207
5.041453 0.791648 1.895886 255 245 238
5.425917 0.153225 1.819841 242 217 212
5.946546 0.749279 1.714205 109 90 92
6.008093 -0.063770 1.675099 255 250 245
4.880928 -0.498236 1.901314 221 199 186
4.872106 -0.401173 1.898755 255 245 233
5.657290 -0.558553 1.723077 255 251 230
6.002757 -0.158252 1.683338 225 187 178
5.849578 0.804306 1.737265 250 241 234
5.041897 -0.635741 1.855282 253 240 234
5.446868 0.955162 1.835319 69 54 51
5.898334 -0.146172 1.708976 253 246 240
5.747065 -0.672600 1.701294 241 216 211
5.771113 -0.462910 1.709675 255 253 243
5.894414 0.160769 1.705680 247 220 213
5.952842 -0.380382 1.677243 227 219 208
5.394917 0.385876 1.835117 240 230 221
4.971188 0.237876 1.904034 255 246 240
5.105289 0.065826 1.870540 233 205 194
6.269259 0.167143 1.634029 254 226 214
6.075121 -0.582305 1.639232 91 71 80
5.983744 0.240853 1.686428 221 188 181
6.156914 0.157045 1.643713 223 196 187
4.894202 0.145537 1.915257 254 244 234
5.971530 0.651715 1.703192 163 133 133
5.163303 0.554824 1.885747 95 75 74
5.072645 -0.644685 1.857320 214 213 208
5.691358 -0.861345 1.706033 255 231 226
5.516896 -0.313088 1.779231 130 121 114
6.041172 0.809653 1.690407 237 218 203
5.500440 0.567683 1.803679 255 252 251
5.070513 0.866327 1.901418 128 119 112
5.853488 -0.699972 1.677066 255 253 237
4.641106 -0.073484 1.955663 148 135 129
4.745578 0.474452 1.955715 255 251 234
5.093738 0.151759 1.885559 103 90 82
6.189088 -0.004563 1.642045 236 196 184
6.179616 -0.218854 1.633622 102 89 98
5.506485 0.660963 1.804187 232 213 207
5.811952 0.012015 1.728579 255 252 249
4.854307 0.755480 1.940554 134 107 112
5.094816 -0.320386 1.870064 244 223 218
5.774607 0.723549 1.752988 252 247 241
5.745361 0.077484 1.731656 255 229 211
5.622272 0.026347 1.766120 104 95 96
6.090135 -0.389864 1.653507 76 65 59
5.399930 -0.425392 1.798813 255 247 238
6.250082 0.018957 1.625575 255 251 241
6.041233 0.881303 1.702789 99 88 86
6.070481 -0.536960 1.639471 228 217 213
5.937923 0.799977 1.722204 115 93 96
5.956615 -0.520582 1.669494 76 74 77
5.923666 -0.304231 1.688424 254 235 231
6.081518 0.636070 1.679163 229 211 209
5.592299 0.554161 1.786712 255 228 219
5.061151 0.081715 1.884398 255 240 232
6.184702 0.727783 1.670529 94 80 80
6.177942 -0.298854 1.636903 246 237 230
5.809525 0.079503 1.719233 239 206 197
5.976660 0.959142 1.720776 59 49 48
6.060935 0.825423 1.697362 104 90 90
5.613198 0.722854 1.791306 254 255 255
5.631394 0.233786 1.766901 255 245 239
5.494048 0.793234 1.818963 241 242 236
5.088372 -0.555081 1.854982 219 191 179
5.505371 0.283396 1.808828 255 254 250
6.200955 -0.393474 1.624790 255 235 223
5.905899 0.805265 1.716776 228 214 211
4.735936 0.109353 1.937063 255 253 255
5.968946 0.173024 1.689666 239 210 206
4.852465 -0.084004 1.921487 255 249 242
6.090135 -0.389864 1.653507 76 65 59
5.996990 0.244352 1.698415 22 2 4
6.217250 0.336772 1.644185 255 253 243
5.955837 -0.338727 1.676169 119 103 104
5.916777 0.253288 1.709352 188 151 145
5.194852 0.480388 1.872759 254 244 235
5.138473 0.161531 1.878816 255 252 240
5.179839 0.048485 1.858295 147 139 137
5.593757 0.172566 1.779747 255 248 243
4.965177 0.629852 1.922071 94 83 79
4.785532 0.220565 1.935271 255 241 234
5.912051 -0.157376 1.695856 204 174 163
4.976346 0.152808 1.903222 100 89 85
5.840786 -0.739236 1.677271 251 225 212
5.941613 -0.469011 1.675758 67 56 54
5.466086 0.641915 1.817388 250 228 217
6.068227 -0.722816 1.639642 235 226 227
5.150514 -0.249243 1.848887 255 228 217
5.716554 0.351402 1.758915 109 82 75
4.740760 0.690499 1.953071 120 99 94
5.864457 -0.462061 1.688143 255 237 230
5.846705 0.881825 1.747927 230 231 226
5.242713 -0.645923 1.812106 255 233 219
5.951226 0.717996 1.711456 233 200 193
5.153607 0.468679 1.873276 242 209 202
5.281045 0.307554 1.849282 255 245 237
5.102666 -0.079093 1.874175 233 227 215
5.291479 0.439665 1.854525 99 80 84
5.742247 -0.065832 1.737072 255 252 246
6.113209 0.004722 1.646961 228 204 194
5.782673 0.959724 1.753912 236 238 237
4.758126 0.232608 1.930940 248 240 227
6.183829 -0.466688 1.622592 86 73 65
5.380831 -0.159916 1.827349 75 61 52
5.277536 0.652809 1.851892 249 227 216
4.921730 0.394789 1.920034 235 225 215
5.509659 0.898432 1.810035 78 67 75
4.945189 0.633372 1.918246 252 240 226
4.978148 0.872361 1.922504 253 245 232
6.103359 -0.621837 1.639957 244 223 220
6.047014 -0.703572 1.644448 253 233 224
5.405682 0.363307 1.832030 247 228 222
5.158221 -0.084053 1.861712 87 69 65
5.312069 -0.405891 1.813459 243 225 211
5.525815 -0.393554 1.775615 68 48 47
5.847449 0.411781 1.723920 161 122 117
6.179113 -0.205037 1.632902 112 82 94
5.380291 -0.391125 1.804927 247 238 233
5.481012 -0.033313 1.798152 239 219 212
5.645516 0.397240 1.766725 109 95 86
5.769144 0.794684 1.753636 219 188 183
5.532731 -0.469378 1.768640 255 250 241
5.771788 -0.556990 1.699952 255 246 226
5.799417 0.329681 1.741106 250 239 233
5.559456 0.076899 1.775136 232 195 186
5.062679 -0.478871 1.862642 255 253 242
5.666376 0.317298 1.768600 243 224 217
6.069851 -0.230023 1.657727 86 72 69
6.079353 -0.559177 1.636536 253 234 230
5.611737 -0.300515 1.751641 255 241 226
5.299587 0.310659 1.844543 223 205 201
5.624069 -0.548059 1.740486 255 253 243
5.509111 0.604298 1.808797 118 110 108
5.302791 0.070793 1.837070 234 199 193
5.997875 -0.553217 1.651432 225 192 183
4.857539 0.464828 1.931737 217 200 192
6.064306 0.719089 1.689858 108 87 86
5.129613 0.636921 1.882880 255 253 252
5.075117 -0.059256 1.879515 242 222 215
4.984410 0.635920 1.911744 163 133 125
6.061349 0.493744 1.686295 248 240 238
5.784644 0.648871 1.746039 117 89 86
5.400155 0.882011 1.840832 221 208 202
4.954594 0.350287 1.912787 255 224 211
6.064364 0.712900 1.676136 237 207 205
5.777405 0.808460 1.759430 234 223 219
5.745939 -0.793521 1.699159 82 65 55
5.863689 0.162652 1.722167 38 18 20
5.423692 0.680488 1.822297 242 231 227
4.923338 -0.069525 1.900397 137 117 108
5.951011 -0.631217 1.673664 81 66 63
5.179406 0.348439 1.871101 142 117 123
5.844403 0.958091 1.746771 82 61 56
5.632462 0.235010 1.773203 255 245 240
5.731519 -0.321777 1.730875 255 253 247
5.450520 0.154199 1.807599 230 200 192
6.102305 -0.386832 1.640429 92 81 79
6.184746 -0.652281 1.616131 132 123 128
5.858787 -0.312582 1.689270 85 61 57
5.521482 -0.469673 1.770524 255 250 242
5.175081 0.067821 1.861212 252 240 224
5.830338 0.808921 1.743544 231 216 211
5.447039 0.720952 1.825973 255 254 255
4.780042 -0.162734 1.921728 255 251 241
5.805332 0.161439 1.736274 52 34 32
5.068065 0.440060 1.892652 103 93 91
6.242641 -0.065157 1.635789 75 64 60
4.835002 -0.094208 1.908044 245 228 212
5.563021 0.714434 1.797940 52 33 35
5.832724 -0.790024 1.681531 96 81 74
5.782756 0.238955 1.735754 227 204 196
5.655679 0.954860 1.782784 98 88 86
5.068658 0.069962 1.882006 255 240 224
4.623219 0.144580 1.971615 143 129 126
6.054695 0.890586 1.701537 239 234 231
6.042582 0.246652 1.679895 113 98 91
4.960726 0.018877 1.899407 246 234 220
5.642565 -0.547217 1.733508 255 251 244
5.539820 0.148296 1.792497 211 177 167
5.855486 0.409447 1.723660 255 252 240
5.837225 -0.557704 1.690930 229 201 189
5.611009 -0.319736 1.751472 227 203 191
5.380855 -0.480246 1.790302 244 230 219
4.714996 -0.018092 1.938411 204 184 175
6.224452 0.178714 1.622901 248 238 228
5.666230 0.013856 1.746627 255 236 228
5.841559 0.800339 1.742559 100 88 88
5.143967 0.542950 1.877045 230 205 198
6.057218 0.800257 1.690474 238 211 204
6.185935 0.158132 1.642901 215 187 176
5.932290 0.160331 1.696228 255 237 228
4.735209 0.109175 1.942507 255 253 255
6.072859 -0.578741 1.643479 255 232 225
4.963209 0.053418 1.901106 136 132 129
5.844355 -0.562451 1.691264 231 205 192
5.917555 -0.142561 1.695583 164 133 128
5.174931 0.059027 1.858588 250 234 219
5.185813 -0.456132 1.829749 224 207 200
5.881379 0.807225 1.726418 255 245 239
6.079451 0.087878 1.657625 74 63 57
5.941268 0.891881 1.726527 220 210 198
6.240295 0.178594 1.630845 255 245 239
5.731519 -0.321777 1.730875 255 253 247
4.777637 0.460259 1.935982 241 214 203
4.959617 0.036296 1.901483 249 237 225
5.515825 0.787097 1.813335 94 81 73
5.617107 0.157016 1.773541 228 195 190
5.109049 0.624652 1.885352 218 191 182
5.790881 -0.398073 1.714474 255 246 234
5.852770 0.721669 1.737393 86 65 64
4.903451 0.155131 1.918946 132 128 119
6.060674 0.227075 1.674132 98 88 89
6.034912 0.593285 1.680750 235 219 204
5.059036 0.290481 1.890093 231 217 206
5.631240 -0.306767 1.752015 255 248 239
5.875549 -0.317347 1.689734 255 242 230
5.063344 0.255010 1.886242 152 131 136
6.096862 0.723296 1.684549 54 25 29
5.420331 -0.718736 1.777248 111 98 90
6.116564 0.494718 1.657496 144 110 109
5.631686 -0.235787 1.762906 79 57 59
5.878366 -0.155631 1.696732 213 195 185
5.227351 -0.552189 1.815996 229 219 209
6.011446 0.809772 1.703542 222 213 206
4.779828 0.299869 1.936512 231 187 178
5.641091 -0.141049 1.763281 236 206 196
6.026766 0.253479 1.683827 255 234 226
5.509477 0.453548 1.808390 255 254 255
5.856690 -0.774810 1.672972 248 233 226
5.307192 -0.011459 1.844488 197 171 156
6.202020 -0.618177 1.610857 243 218 214
5.586319 0.009735 1.775694 255 244 237
5.946481 0.157670 1.696390 239 212 195
5.063406 0.255006 1.888148 152 131 136
5.843517 -0.388557 1.705119 133 122 128
5.627123 -0.274069 1.757984 73 60 69
5.820075 0.724058 1.742448 225 222 215
5.585882 0.883812 1.800031 227 218 211
5.456112 0.631810 1.816357 242 213 207
6.120521 0.496343 1.664632 144 110 109
5.082577 -0.038528 1.875117 255 227 218
5.295506 -0.637311 1.807456 217 210 204
6.058295 0.823635 1.692988 104 90 90
5.517498 -0.038776 1.786894 112 92 93
5.902622 0.559196 1.710246 60 45 38
5.390142 0.394316 1.832919 93 76 68
5.324164 -0.551774 1.806364 255 251 243
5.175966 0.043880 1.857303 255 236 222
5.792667 0.960423 1.754266 224 228 227
5.863195 0.486654 1.727634 249 245 246
6.123708 -0.300091 1.636786 255 245 236
6.252728 0.419024 1.638233 255 253 246
5.294781 -0.008543 1.842842 204 197 189
5.956737 -0.160339 1.685333 102 93 96
5.076639 -0.174117 1.875635 144 132 134
5.088304 -0.077780 1.875278 255 254 243
6.156039 -0.383827 1.635796 100 87 78
5.623803 -0.455878 1.748549 111 105 107
6.054695 0.890586 1.701537 239 234 231
5.928607 -0.144949 1.696405 247 230 223
5.755662 -0.546571 1.711985 255 247 245
5.313333 0.004524 1.834108 255 249 244
5.506459 0.554295 1.806337 57 39 35
5.691754 0.689706 1.765468 255 249 250
5.748663 0.158113 1.736841 252 220 209
5.873079 0.094656 1.709591 146 115 113
5.298139 -0.041015 1.840244 96 76 77
5.282507 0.289706 1.849206 238 227 225
6.025275 -0.460936 1.654308 249 232 224
5.444553 -0.084581 1.808787 233 199 187
5.293207 -0.327177 1.822125 240 242 229
5.841713 -0.746285 1.678047 255 236 222
5.486355 -0.083158 1.798108 233 214 199
5.430963 0.153635 1.820505 212 189 183
5.246874 0.712760 1.869358 101 97 94
5.875296 -0.542924 1.682736 255 248 240
4.853534 -0.018306 1.931755 235 218 210
5.973126 0.884962 1.721031 112 102 100
5.178785 0.473608 1.871574 83 68 61
5.064356 0.446989 1.894528 227 210 202
6.073019 -0.729713 1.637022 129 114 119
5.260834 0.466452 1.854783 255 234 223
4.959557 0.326667 1.912179 90 68 71
5.283123 -0.169075 1.833806 255 250 238
4.968877 0.392254 1.909103 227 224 219
5.513874 0.451682 1.802682 102 85 91
4.832917 0.460635 1.932983 233 201 190
6.186776 -0.003882 1.644232 237 197 185
6.262756 0.253375 1.635702 229 228 226
4.989958 0.151131 1.892026 56 36 35
6.078560 -0.564478 1.644250 81 65 75
5.728595 0.280606 1.751157 91 76 73
6.045059 -0.538539 1.643708 239 220 213
5.612219 0.516156 1.781421 233 219 218
5.291479 0.439665 1.854525 99 80 84
5.652669 0.403592 1.781432 211 211 203
5.740278 0.009632 1.738244 255 252 248
5.509673 0.469156 1.809448 207 207 207
6.063777 0.176430 1.675649 238 237 233
5.714878 0.956224 1.775075 87 73 73
6.081283 0.087808 1.660552 74 63 57
5.331468 0.706993 1.845131 124 90 80
5.374097 0.156449 1.831707 166 164 152
5.848414 -0.157389 1.706486 244 230 217
6.064569 0.333892 1.672819 240 235 229
5.294723 0.070278 1.836140 232 198 188
5.855132 0.083029 1.732088 94 83 77
5.811455 0.240462 1.728956 210 187 181
6.044658 0.240894 1.677264 244 221 213
5.837536 0.538235 1.730121 234 220 220
5.433737 0.473008 1.814064 74 57 49
6.051574 0.405587 1.680472 103 89 86
6.023721 0.724856 1.698956 100 84 85
6.078560 -0.564478 1.644250 81 65 75
6.076583 -0.390368 1.656577 87 74 68
5.439782 0.720908 1.826511 255 253 254
6.067642 -0.073170 1.658499 230 215 208
5.289262 -0.322979 1.831038 88 74 63
5.429018 -0.014044 1.801265 255 233 229
5.617880 0.498777 1.779177 105 79 82
6.049461 -0.070485 1.668638 101 88 82
5.969168 -0.791117 1.654328 98 79 73
6.094502 -0.627693 1.634274 89 70 64
6.061291 0.813845 1.690674 248 228 221
5.833641 0.647122 1.739571 232 227 223
5.847348 0.726665 1.741446 255 250 248
6.048532 -0.139238 1.661051 241 221 212
5.492728 -0.370566 1.775365 255 231 227
5.966212 0.164773 1.684579 92 71 66
5.513470 -0.212279 1.785748 249 238 236
5.015460 0.941282 1.906631 86 71 76
6.069221 0.405886 1.672684 89 84 81
5.931992 0.186133 1.694923 122 93 85
5.685274 -0.781247 1.706313 241 223 213
5.634143 0.237689 1.765756 255 245 240
5.944741 0.321111 1.705681 220 219 217
5.953323 0.742546 1.709157 236 193 184
5.483365 0.630802 1.811160 255 237 229
5.263281 -0.705843 1.800808 236 213 207
5.652110 0.316463 1.767010 255 247 235
6.021269 0.266580 1.679655 118 85 80
5.734181 -0.197884 1.736116 255 237 228
4.858229 -0.379627 1.900332 120 108 110
5.156771 0.163510 1.867722 133 116 109
5.303738 -0.001895 1.838361 80 62 52
5.921414 0.801814 1.722008 99 88 86
6.142319 -0.390885 1.626149 248 221 212
5.640904 0.800869 1.791023 252 252 250
5.729783 0.884284 1.776834 187 180 174
5.513470 -0.212279 1.785748 249 238 236
5.627779 0.875645 1.789102 62 58 59
5.731786 -0.561201 1.712562 151 132 118
6.109326 0.328314 1.664635 91 77 77
5.985358 0.083548 1.674995 234 204 193
6.171575 -0.023510 1.640747 126 105 110
5.957085 0.422589 1.697001 255 229 218
6.009163 0.002006 1.676224 255 240 229
5.729908 0.460688 1.756066 112 103 108
6.068926 0.239192 1.667666 231 214 206
6.049906 0.086257 1.669471 114 95 91
5.930064 0.165017 1.699415 105 90 85
5.579397 -0.082332 1.780397 251 233 223
5.274764 0.314931 1.857367 83 66 58
5.631822 0.662458 1.777638 188 151 143
5.006855 0.385937 1.896841 208 188 181
5.339865 0.960117 1.844178 230 234 233
5.630901 0.648711 1.789118 255 247 236
5.791001 0.476859 1.741733 237 197 185
5.727133 0.948621 1.767023 104 95 96
5.289293 -0.322967 1.831200 88 74 63
5.985028 0.241667 1.681769 203 174 170
5.105912 0.083975 1.874225 160 115 110
6.187827 -0.382282 1.634138 246 237 228
5.406678 -0.105077 1.812387 255 247 246
5.230835 0.640529 1.863353 174 124 115
4.851759 0.477577 1.947960 255 255 241
5.918816 0.401781 1.709187 246 215 210
5.776055 0.891646 1.747417 251 221 213
5.608804 -0.071292 1.773874 254 240 231
5.457760 0.866804 1.823965 235 204 199
5.051011 0.626693 1.903550 255 251 238
5.690189 0.635852 1.767753 92 72 65
5.559115 0.554064 1.790314 95 71 61
6.119441 -0.154042 1.643685 245 217 203
4.821271 -0.416772 1.899296 216 191 184
5.274287 0.314757 1.855569 89 72 64
5.637585 -0.608158 1.729770 143 134 135
5.188222 -0.101308 1.853037 255 239 236
5.407800 0.025391 1.819253 231 194 186
6.057498 0.401221 1.681235 239 235 234
5.234056 0.645327 1.856351 169 143 130
5.806365 -0.152631 1.731950 236 232 229
5.208840 0.950781 1.889258 90 80 79
4.640860 -0.052390 1.954374 121 111 110
5.879687 -0.316658 1.691884 250 227 219
5.862416 0.955124 1.742343 224 210 199
5.637585 -0.608158 1.729770 143 134 135
5.976475 0.332959 1.689045 176 147 141
5.728027 0.427648 1.756411 105 95 96
5.058548 -0.559705 1.859806 255 253 248
5.992990 -0.062633 1.671346 255 248 245
5.301475 0.191638 1.845184 255 247 240
5.073886 -0.213496 1.866667 131 113 113
5.507479 0.406542 1.813660 232 223 214
5.517678 -0.370458 1.774775 147 137 145
6.149646 0.334747 1.653273 255 253 239
4.739091 0.488974 1.948946 138 134 133
5.028233 0.947230 1.915215 127 123 120
6.026639 0.882988 1.708418 78 67 63
5.773955 0.895380 1.749149 137 107 99
6.081987 0.568106 1.684296 83 68 65
4.655876 0.141774 1.960393 240 220 213
5.896697 0.814355 1.721165 118 90 89
6.052257 0.348903 1.671970 255 244 235
5.188106 -0.249345 1.848382 217 187 177
5.570982 -0.558371 1.746999 234 206 194
5.691530 0.581831 1.760137 140 107 100
5.578347 -0.145219 1.763833 184 153 150
5.857319 0.728506 1.735984 255 244 234
5.888909 0.953162 1.721581 76 70 70
5.514774 0.452293 1.806075 102 85 91
5.809372 0.561116 1.734706 86 65 62
4.719177 0.381261 1.951550 237 227 217
6.053576 0.354580 1.676459 250 232 218
5.065693 0.633344 1.895470 255 253 250
6.240921 0.655359 1.655217 255 252 236
4.845429 0.608154 1.934209 251 243 241
5.084179 -0.158615 1.872262 255 247 240
5.505623 0.863446 1.801587 175 140 136
5.816767 0.177128 1.724752 168 129 124
5.786746 0.002011 1.723415 103 73 65
5.493961 0.716166 1.819773 83 75 72
4.951723 0.529982 1.918591 248 229 215
5.517549 0.170021 1.805312 145 113 114
5.943720 -0.552460 1.660810 240 209 204
6.059546 0.359981 1.676000 80 65 72
6.077501 -0.591911 1.642222 102 89 96
5.498939 0.393286 1.810952 254 224 213
5.289043 0.798048 1.863599 255 255 255
5.674057 -0.780269 1.706495 255 251 241
5.940042 0.731802 1.717232 246 230 215
4.737653 -0.165276 1.937708 255 251 242
6.278920 -0.303046 1.615382 249 230 223
5.935659 0.796417 1.718327 255 221 209
4.848712 -0.218503 1.908308 251 238 221
5.705889 0.290034 1.757174 129 92 84
5.947383 0.890046 1.728099 74 73 69
5.293179 -0.001000 1.840162 250 246 243
5.278652 -0.158535 1.839746 246 235 231
5.301656 -0.056719 1.835970 238 214 202
5.655962 0.568444 1.761238 172 123 118
4.972982 0.073521 1.902064 84 73 67
5.624887 -0.270486 1.762350 237 228 231
5.538543 -0.799726 1.737911 88 69 63
6.057021 0.015477 1.668944 255 237 232
4.745176 -0.177023 1.928989 236 218 208
5.288297 0.431057 1.857697 252 246 246
5.905366 0.717130 1.720960 236 199 191
5.393465 0.819724 1.836488 231 216 213
6.154056 0.170359 1.655253 93 80 71
4.909016 0.622014 1.922364 227 189 180
5.184726 0.031607 1.854107 246 227 221
5.362955 -0.642299 1.782681 242 225 217
5.111166 -0.076509 1.870194 156 131 126
5.032294 0.465798 1.898436 255 223 210
5.627223 -0.442757 1.747376 88 77 83
4.849826 0.567623 1.931061 146 131 134
5.830196 -0.699476 1.679397 255 252 238
5.492048 -0.467644 1.770296 245 228 220
5.293778 -0.711983 1.802296 255 254 246
6.190059 0.088972 1.647423 23 9 6
4.849207 0.710766 1.932845 240 220 213
5.301025 -0.024616 1.830451 255 249 241
5.957413 0.334682 1.696399 255 249 244
5.502148 -0.233431 1.794609 150 139 133
5.403083 0.312655 1.822780 211 178 173
5.184796 0.189837 1.868112 255 251 248
5.183537 0.204727 1.869695 240 231 224
5.912394 -0.553667 1.669306 248 218 208
5.184167 -0.103489 1.858307 94 76 76
5.602921 0.879337 1.795576 216 215 211
5.638249 0.962085 1.782268 241 255 251
5.868020 0.888427 1.743687 220 211 202
5.697260 0.723367 1.773312 254 250 249
5.352466 0.628426 1.836176 245 221 217
4.963187 0.635481 1.919879 252 240 228
5.442987 -0.403285 1.788410 233 210 202
4.814427 0.816676 1.940778 230 212 200
5.859248 0.333403 1.718629 153 120 115
6.070122 0.246385 1.672462 102 88 85
4.987893 -0.091780 1.894600 235 217 203
5.307192 -0.011459 1.844488 197 171 156
5.962601 0.156404 1.688972 244 206 193
5.399350 -0.418364 1.797484 255 250 240
4.895134 -0.070517 1.905554 255 241 229
4.952933 0.513716 1.915823 255 244 228
6.170724 0.099281 1.647642 246 233 224
5.963061 -0.000053 1.686719 230 208 197
4.850876 0.617983 1.933107 96 81 84
5.958776 -0.490195 1.665827 235 212 206
5.868095 -0.544942 1.689104 255 249 241
4.846856 0.401378 1.933702 115 96 98
6.057146 0.565480 1.688462 92 79 73
5.898970 0.160163 1.703300 255 249 242
5.275997 -0.168928 1.834947 255 249 242
4.950414 0.542771 1.919457 250 227 209
5.416142 -0.753695 1.765575 243 216 197
4.962081 0.187703 1.904488 137 129 127
5.866621 -0.789771 1.675051 94 81 72
6.052187 0.373387 1.674341 255 247 244
6.021118 -0.380325 1.656679 255 251 248
5.077777 -0.526447 1.855262 111 96 101
5.011815 -0.000651 1.892964 255 245 238
5.538597 -0.043505 1.775070 255 237 228
5.492740 -0.628749 1.760269 255 251 244
4.949252 0.379858 1.910158 243 209 199
5.538597 -0.043505 1.775070 255 237 228
5.214044 0.481793 1.864290 201 174 165
5.718980 0.175108 1.746978 137 110 103
5.950587 0.913068 1.724882 107 92 97
5.605581 0.955029 1.792686 236 238 235
5.616063 0.400992 1.782470 241 241 231
5.907341 -0.621555 1.670285 255 250 243
6.037063 -0.234167 1.656958 110 92 88
6.062444 0.712296 1.688569 255 250 253
5.251167 -0.396426 1.833323 255 248 237
5.396957 0.538906 1.832928 255 250 251
5.925433 0.006271 1.697610 174 166 164
4.956467 0.327079 1.912753 247 229 217
5.891161 0.817950 1.722249 235 211 209
5.298373 -0.050598 1.839306 76 55 60
5.292871 -0.013115 1.845942 239 216 198
5.893923 -0.236453 1.691513 255 248 239
6.224985 0.418115 1.645980 110 89 86
6.068411 -0.397460 1.650379 104 85 91
5.729643 0.014206 1.738068 239 226 218
4.849826 0.567623 1.931061 146 131 134
5.938028 0.161542 1.700009 255 229 222
5.393465 0.819724 1.836488 231 216 213
5.835633 0.812909 1.737308 131 111 113
5.281685 0.578825 1.856874 255 249 240
5.650696 -0.470220 1.743720 255 244 236
6.149773 0.483432 1.655165 255 244 230
6.171881 -0.381960 1.636602 255 244 232
6.026722 0.564545 1.698260 76 57 53
6.177294 0.119520 1.640580 232 203 195
5.404671 -0.464431 1.798436 119 107 109
5.395120 -0.710727 1.780310 255 254 242
5.242448 -0.645230 1.810645 255 233 219
5.734228 -0.697422 1.704878 225 202 196
5.309655 -0.482240 1.807474 237 229 218
6.060100 -0.262944 1.656445 232 227 224
5.782117 -0.464062 1.714169 247 234 225
5.839884 -0.550751 1.693752 54 47 39
5.843267 -0.073605 1.715192 98 80 78
5.415936 0.472760 1.827341 255 228 217
5.385974 0.241927 1.834046 255 252 249
5.629532 -0.255646 1.749338 229 212 202
5.546558 0.719506 1.805303 255 255 250
5.626986 -0.252564 1.757969 89 80 83
5.196349 -0.076992 1.856254 255 253 246
5.084814 -0.238321 1.868149 255 246 238
5.092049 0.071805 1.875826 98 79 72
5.838533 0.960286 1.749313 100 85 80
5.843796 0.659109 1.738733 117 115 116
5.072477 0.754067 1.896121 139 113 112
5.639126 -0.238294 1.746208 255 241 229
5.863962 -0.315359 1.698752 82 59 53
4.952038 0.477646 1.911660 239 235 224
4.964433 0.020427 1.900286 137 126 130
5.423772 -0.797620 1.776222 110 97 89
5.434426 0.163062 1.831474 152 144 142
5.403024 0.220589 1.834127 97 79 79
6.072324 0.087493 1.667818 95 82 76
5.569768 0.649625 1.789923 255 229 223
5.840868 0.180030 1.722103 109 100 103
5.181964 0.376406 1.869148 254 226 212
5.760601 -0.783275 1.697061 218 201 193
5.083551 0.009766 1.873635 248 223 218
5.948899 -0.463910 1.672772 245 234 228
5.738842 -0.486572 1.716248 255 253 244
5.952016 0.955999 1.722944 95 86 89
5.944345 -0.223354 1.683252 255 250 234
4.613905 0.231252 1.964900 250 244 232
5.610090 0.563118 1.793307 216 215 211
5.517549 0.170021 1.805312 145 113 114
4.953238 0.180118 1.903841 255 254 244
5.408252 -0.722981 1.772368 242 241 239
5.180418 0.322886 1.870408 147 131 132
5.838675 0.825134 1.742570 114 85 90
5.317312 0.556465 1.840027 92 75 65
5.621116 -0.293881 1.752852 255 247 234
5.464743 0.632214 1.813162 255 239 232
4.958604 -0.120857 1.896440 255 242 233
5.944527 0.577309 1.708523 127 119 116
4.856913 -0.528073 1.899127 134 124 125
6.042377 0.276064 1.674464 248 219 211
5.869350 0.015969 1.708346 255 232 225
5.944285 0.766777 1.711612 101 85 86
5.710441 0.172955 1.747709 165 130 124
5.307585 0.717586 1.851530 251 242 235
5.198456 0.070203 1.857374 255 242 235
5.962803 -0.063881 1.693230 255 251 243
5.394924 0.396938 1.835623 235 235 235
5.546393 0.867292 1.795322 248 202 189
5.728378 0.446987 1.755432 111 100 104
5.687595 0.238453 1.755002 250 231 224
4.952684 0.524155 1.917929 255 244 228
4.858099 -0.042705 1.915375 139 121 119
5.632641 -0.138419 1.742237 237 203 193
5.924656 -0.315946 1.681022 228 210 198
5.736874 -0.056249 1.740459 246 232 221
5.028058 0.149584 1.886648 198 167 162
5.146054 0.715499 1.886333 255 254 246
6.079151 0.719288 1.682334 245 215 213
5.839467 -0.301988 1.704175 233 229 220
5.551533 0.569421 1.790772 247 216 211
5.176191 0.030488 1.856771 248 219 205
5.842117 -0.431801 1.696667 234 224 223
5.722393 0.009612 1.744182 255 251 244
5.061523 0.084696 1.878544 175 135 125
5.958725 0.149293 1.695410 95 71 69
5.629907 0.082110 1.772825 100 87 79
5.291545 0.449933 1.854819 101 89 93
5.480159 -0.526936 1.766411 255 250 242
6.077157 0.253136 1.680076 255 245 240
5.462608 0.803546 1.830774 255 255 255
5.184198 -0.140419 1.857686 145 136 141
5.944142 0.747942 1.709687 109 90 92
5.477693 0.550913 1.804469 255 251 238
5.402212 0.502312 1.827747 255 240 235
5.159289 -0.077355 1.855156 255 251 237
4.909016 0.621840 1.921413 227 189 180
5.998289 0.255260 1.682135 169 136 131
5.816173 0.080099 1.720299 255 247 238
6.164857 0.477905 1.657715 246 242 239
6.045623 0.534549 1.684035 251 234 224
6.049396 0.516136 1.682223 109 95 92
5.850390 0.881657 1.745769 230 229 224
5.402844 0.538019 1.830147 252 234 224
6.182731 -0.202010 1.630867 249 212 206
5.725749 0.579502 1.760138 89 87 92
5.652770 0.159931 1.767113 57 38 34
5.627540 -0.292411 1.747493 254 227 220
5.966598 0.479106 1.696410 255 250 242
5.825544 -0.235339 1.713354 212 178 166
5.810924 -0.303182 1.707581 255 252 243
6.182725 -0.213358 1.629006 244 211 196
5.729234 0.280747 1.752754 91 76 73
5.167508 0.642754 1.894028 255 255 255
5.175574 0.352446 1.868898 254 243 241
4.862522 -0.375584 1.899988 237 215 204
5.698462 0.866070 1.772277 120 86 77
5.611845 0.395153 1.781828 242 215 208
4.858213 -0.036882 1.915914 132 118 117
5.947661 0.732801 1.715915 92 82 83
5.860426 0.803977 1.735597 234 229 226
5.179688 0.637052 1.875685 255 255 253
6.077501 -0.591911 1.642222 102 89 96
5.402699 0.360434 1.833044 87 76 80
5.503945 0.866399 1.807934 216 181 177
5.033718 0.320800 1.893443 149 126 120
5.698462 0.866070 1.772277 120 86 77
6.112878 0.576019 1.664550 169 144 140
6.077713 -0.717195 1.629891 237 209 206
5.922751 0.449146 1.706006 174 138 124
6.123972 0.561201 1.665090 255 245 236
5.608219 0.496431 1.782655 116 72 63
5.730466 -0.487216 1.716737 219 215 214
5.926486 -0.826734 1.655236 231 203 199
5.057446 0.306187 1.889852 230 218 204
6.035228 -0.231145 1.655499 255 253 241
5.962761 0.810623 1.703108 121 91 91
5.787789 0.892384 1.750108 121 92 86
5.736426 -0.530364 1.715856 119 115 116
5.177300 0.020098 1.861627 255 233 224
6.172536 0.620971 1.663437 126 117 118
6.071875 0.884358 1.700331 106 91 86
5.170132 -0.008783 1.858842 236 206 198
5.367028 0.630668 1.836530 221 201 194
5.531226 0.790495 1.808069 255 245 234
5.068911 0.735622 1.901865 253 254 255
5.059683 0.255472 1.887278 255 242 232
5.883001 -0.316426 1.689742 232 213 206
6.264506 0.248477 1.629711 114 103 101
5.937937 0.221986 1.698585 252 225 218
5.617058 0.789190 1.788509 255 240 222
5.248130 -0.391646 1.825262 158 129 121
6.093594 -0.554428 1.639822 140 127 121
5.400695 0.540684 1.832728 112 96 99
5.057472 0.306388 1.890214 230 218 204
6.063728 -0.138452 1.667155 77 66 70
5.637316 0.168489 1.771759 255 250 246
5.579642 0.010616 1.770318 255 240 231
5.948271 -0.552334 1.659544 235 204 199
5.190199 0.209580 1.866221 114 98 101
6.056150 -0.071555 1.668027 232 228 227
5.467368 -0.002593 1.806199 205 175 167
4.838813 0.316246 1.929257 249 223 210
5.676056 0.948759 1.772107 84 59 65
5.747178 -0.001079 1.734150 255 228 219
5.519366 0.235498 1.802138 255 249 235
5.853384 0.727436 1.736914 255 252 244
5.710354 0.080429 1.753114 67 57 48
5.837966 0.833031 1.743534 90 65 71
5.468268 -0.461959 1.775024 152 129 121
5.568345 -0.161496 1.767685 232 198 188
5.944024 0.800096 1.722125 242 241 239
6.253921 0.484547 1.642348 255 233 228
5.406739 0.063287 1.810724 255 222 218
5.063225 0.293503 1.886817 122 108 108
4.626396 0.392498 1.967424 209 211 200
6.073267 -0.407501 1.645847 233 213 206
4.963730 -0.108333 1.895935 157 151 151
5.721683 0.587886 1.759279 248 230 226
5.962126 -0.655383 1.661659 80 65 72
6.073116 -0.437849 1.644480 255 228 220
5.063225 0.283239 1.884733 118 99 101
5.344443 0.549273 1.837984 116 77 70
5.410433 0.152530 1.826599 232 211 208
6.086472 0.084070 1.658961 244 225 219
5.771974 0.898823 1.752681 255 233 223
4.739492 -0.172600 1.940632 99 84 77
5.410425 0.071929 1.825620 231 194 188
6.185739 0.171204 1.637038 93 82 76
6.190793 0.722271 1.663459 235 208 201
5.800580 -0.556246 1.697951 99 71 67
6.044810 0.554405 1.683220 230 222 220
5.213680 -0.549689 1.821960 255 251 242
6.264770 -0.304972 1.625172 248 231 224
4.677541 -0.179314 1.938848 235 221 210
5.728765 0.747866 1.761124 78 72 74
6.133318 -0.616343 1.629612 239 220 216
4.993439 0.944747 1.916539 95 89 91
5.842420 0.262995 1.712178 239 216 208
5.589387 0.168323 1.782232 255 251 249
6.083285 -0.549710 1.643437 77 68 61
5.875007 0.706363 1.722364 255 243 240
5.537988 0.805026 1.801629 131 81 82
5.480159 -0.526936 1.766411 255 250 242
5.725065 0.681672 1.755667 255 230 226
5.962803 -0.063881 1.693230 255 251 243
6.179016 -0.314231 1.635463 233 232 230
5.187851 0.003873 1.855322 255 243 236
5.926486 -0.826734 1.655236 231 203 199
5.162033 0.004469 1.865019 170 135 131
5.302068 -0.025147 1.838667 255 249 242
5.364014 0.161155 1.839934 235 234 230
5.725782 0.910434 1.765164 89 77 81
6.250013 0.419251 1.634908 255 252 243
5.664910 0.635756 1.777425 227 194 187
5.279327 0.712491 1.862816 137 123 120
5.185437 0.415871 1.866302 255 233 231
4.940784 -0.571861 1.879261 253 248 244
5.676472 0.238596 1.753805 251 226 221
6.056530 0.676880 1.685232 140 131 132
5.759340 0.027620 1.734216 135 110 103
6.037063 -0.234167 1.656958 110 92 88
5.092010 0.116008 1.877309 254 225 221
5.663805 -0.080232 1.749823 255 246 235
5.398868 0.654325 1.834988 158 112 114
5.758772 0.238756 1.742096 253 233 226
5.298467 -0.058534 1.838907 111 93 93
4.637027 -0.066044 1.954383 237 220 210
6.258921 0.246146 1.633312 246 223 215
4.963730 -0.108333 1.895935 157 151 151
5.196524 -0.247813 1.841420 244 220 208
5.524354 0.121323 1.794790 219 204 197
4.958190 0.217565 1.911608 249 245 244
5.510137 0.440647 1.808520 247 241 241
5.218116 -0.552630 1.825974 221 200 195
5.805246 0.635891 1.743295 255 249 234
6.183705 -0.533648 1.626355 131 121 120
6.045826 0.722866 1.694189 120 105 102
5.231926 0.710211 1.869796 82 66 67
5.403085 0.212171 1.833047 91 75 75
5.467464 0.867530 1.821759 246 221 217
5.848787 -0.730997 1.676683 238 219 205
4.862670 -0.404496 1.915437 255 240 235
5.120294 -0.076700 1.861706 255 253 244
6.185075 -0.496127 1.628027 111 96 99
4.770095 -0.146366 1.926762 252 219 212
5.617880 0.498777 1.779177 105 79 82
5.909431 -0.619560 1.670111 158 135 127
5.178561 0.238083 1.870023 240 237 230
5.619529 -0.709045 1.732187 243 226 219
5.042566 0.545661 1.896730 227 200 193
5.257441 0.242250 1.850913 255 248 237
5.369531 0.230772 1.827939 222 192 182
6.059723 -0.251273 1.656484 242 234 232
5.646621 0.645309 1.775972 246 232 221
5.940896 0.452474 1.703578 255 243 241
5.725782 0.910434 1.765164 89 77 81
5.320088 -0.730215 1.789358 232 209 201
5.815760 0.395905 1.731315 255 241 228
5.506252 0.587503 1.808238 255 250 253
5.361708 0.380086 1.836967 147 112 106
5.950053 0.802281 1.721513 83 71 73
5.565011 -0.161956 1.769259 255 230 219
6.173570 0.262207 1.649643 156 135 134
5.289427 0.877665 1.862569 90 78 80
4.803596 0.632001 1.941421 176 147 143
5.170254 -0.071496 1.852986 255 252 241
5.664686 -0.065819 1.749646 169 139 131
5.181706 -0.263783 1.851269 138 121 129
5.634119 0.393276 1.771088 234 216 206
5.088583 0.131869 1.879306 145 141 142
5.515749 0.424685 1.808336 78 53 59
5.191152 0.627501 1.871234 238 205 198
4.879779 0.651787 1.924100 125 95 87
5.488698 -0.160785 1.794040 76 62 51
5.563127 0.739659 1.796729 255 251 255
5.294098 0.675426 1.852057 255 230 221
6.010626 0.719529 1.696727 224 186 185
5.765948 0.260525 1.737654 244 223 218
5.077032 -0.533116 1.855760 112 96 99
