ply
            format ascii 1.0
            element vertex 31586
            property float x
            property float y
            property float z
            property uchar red
            property uchar green
            property uchar blue
            end_header
2.525034 -1.297059 2.138178 76 68 66
3.501489 0.587169 2.100099 221 197 193
2.566159 1.149985 2.189954 227 223 224
2.986983 -0.518234 2.134277 251 245 233
2.634126 0.771604 2.203794 109 91 89
3.158821 0.352140 2.144011 51 37 37
3.275196 -0.442853 2.098846 255 236 226
2.470079 0.750293 2.217074 242 220 207
3.493918 0.057202 2.089447 194 197 190
3.357062 0.213855 2.113711 255 251 243
2.891485 0.447492 2.172915 255 253 244
3.749499 -0.585154 2.032079 255 248 240
2.258723 -0.212564 2.208949 60 52 49
2.510159 -0.491574 2.179749 255 255 244
2.879190 -0.268894 2.155672 98 83 80
3.243149 -0.670836 2.083644 255 254 243
3.069880 -0.572206 2.119591 90 84 88
3.884960 0.781635 2.071266 98 89 80
2.733060 -0.993785 2.132288 52 47 44
2.584539 -0.600529 2.163495 255 253 241
2.624221 -0.733805 2.156272 85 74 80
3.395533 0.130007 2.103544 207 202 196
3.122480 0.936488 2.130215 229 238 237
2.622953 0.146742 2.187378 245 214 209
2.485959 0.679763 2.218659 58 44 44
3.018800 0.777851 2.166448 195 180 175
1.967670 0.843974 2.284140 255 251 240
3.054128 0.361163 2.157227 72 59 50
3.381121 0.687814 2.117743 255 242 229
3.726514 -0.523791 2.039620 214 194 183
3.876122 1.146326 2.050921 53 52 57
3.784596 -0.915907 2.024693 255 248 240
2.842744 0.046733 2.171440 124 93 90
3.845700 0.063321 2.033946 92 64 76
2.217364 0.748206 2.242950 254 246 233
3.453562 0.380074 2.107372 107 78 72
3.849377 -0.667006 2.029405 247 241 227
2.929432 1.325047 2.084677 179 185 185
2.584018 0.468055 2.203117 255 249 236
2.493253 -0.132982 2.200314 86 79 73
3.384946 -0.916892 2.062392 251 244 234
3.446779 0.203192 2.095674 255 246 239
3.385428 0.461130 2.119409 235 226 219
3.513096 -0.205067 2.081561 76 73 66
3.736564 -0.561303 2.039323 88 88 90
3.163000 -0.932477 2.091903 81 64 57
3.281716 -0.529300 2.094406 248 236 220
3.803385 1.140541 2.055582 194 194 194
3.742719 -0.585516 2.035789 246 232 219
3.273567 0.771019 2.137412 76 61 56
3.416252 0.215895 2.106501 117 97 90
3.726539 -0.592240 2.037160 75 67 65
2.107480 0.104253 2.227060 39 36 31
2.912732 1.223255 2.092201 37 38 40
3.850023 0.689457 2.055164 242 229 213
2.414743 -1.100152 2.163216 235 228 220
2.496788 0.808276 2.218384 61 44 50
2.829174 -0.051200 2.172288 93 88 85
3.428193 0.363373 2.104690 228 212 199
2.143003 -1.041504 2.192358 223 208 205
2.922099 0.115468 2.165147 246 228 216
3.630994 -0.668707 2.041887 62 47 42
3.501736 0.380024 2.095785 236 228 217
3.592108 0.852771 2.094032 32 27 24
3.359722 1.173458 2.103221 215 225 226
3.602274 0.694698 2.088345 99 86 78
3.744498 -0.747353 2.037507 50 49 45
2.726641 -0.458873 2.169537 221 207 194
2.030784 0.674412 2.262386 90 76 73
3.150336 1.320753 2.066040 18 22 25
2.737133 -1.188809 2.123781 238 233 227
3.442627 -0.765057 2.061535 255 251 242
2.397553 -0.581251 2.185811 100 94 94
3.613935 0.773879 2.086871 82 77 71
2.752797 0.517334 2.184208 255 252 244
2.939344 -0.018468 2.164211 250 241 234
3.057141 -0.921433 2.099352 230 222 211
2.841682 -0.589283 2.144343 57 51 55
3.155341 -0.516117 2.115151 93 89 78
2.284550 -0.134854 2.215789 94 83 77
3.284615 -0.553162 2.094649 255 251 243
2.322664 1.148138 2.216125 201 201 201
2.239613 -0.528720 2.202818 255 253 234
3.080451 0.775075 2.157297 96 58 55
3.951693 -0.584583 2.015642 255 249 238
2.115963 0.761610 2.252304 240 233 223
2.382620 0.971502 2.204814 202 193 186
2.598417 0.063570 2.189687 216 207 200
3.913598 -0.768094 2.014771 235 228 212
3.154607 -0.042666 2.130555 244 227 217
3.765399 -1.149194 2.006502 137 131 135
2.831302 0.075915 2.172379 255 252 243
3.386633 1.157244 2.098612 214 210 207
3.063048 0.910528 2.164712 42 38 39
3.100023 -0.528365 2.115372 255 250 241
3.396514 1.158282 2.099161 219 219 211
3.751932 -0.843897 2.035554 97 90 80
3.611739 0.462234 2.083894 255 254 245
2.232829 1.074603 2.227788 25 23 24
3.964577 -0.094360 2.025814 93 89 88
2.656846 -0.375429 2.172162 221 205 192
3.409967 -1.158461 2.050009 206 186 175
3.268400 -1.131617 2.063494 236 228 209
3.240384 0.037743 2.121599 236 213 207
2.366153 -1.031032 2.177350 79 70 61
2.883348 -0.645716 2.130503 255 251 244
3.865295 -0.350234 2.035465 78 72 72
2.407739 -1.106306 2.161809 69 60 53
3.293924 -0.671230 2.085202 255 244 234
3.349422 -0.768647 2.070969 255 236 227
3.924780 0.774390 2.038966 98 89 82
2.383012 0.076997 2.210776 71 57 57
2.604180 -0.858727 2.154936 78 68 56
2.239063 0.442225 2.228331 248 235 227
3.066377 0.848514 2.164846 63 50 44
2.246332 1.153871 2.227773 59 57 58
3.159290 -0.123339 2.129331 255 254 250
3.159580 -1.070536 2.076914 93 73 64
2.471817 1.076233 2.199600 247 235 235
3.738022 1.173522 2.065681 49 51 48
2.483064 1.149427 2.194445 69 69 71
2.611104 0.739072 2.206232 76 64 68
2.651720 1.149060 2.155798 213 235 233
2.296467 0.923945 2.212360 212 217 220
2.777725 1.164902 2.173041 224 238 241
2.617886 -0.719486 2.157780 254 254 244
2.202364 -0.693711 2.197426 255 251 242
3.449001 -0.266491 2.087402 255 255 246
2.627177 -0.426215 2.173901 67 61 63
3.693969 0.365746 2.064737 232 226 214
2.467382 1.137969 2.203495 46 46 48
2.623405 -0.120154 2.189733 255 255 243
3.358838 1.172274 2.100681 215 225 226
3.197033 -0.592816 2.099089 255 250 243
3.099469 -1.085605 2.087704 255 248 238
3.143668 0.119534 2.139962 255 244 236
3.190897 -1.256637 2.069295 90 83 75
2.946272 0.929290 2.170518 215 224 221
2.869503 0.044632 2.170495 255 254 249
2.955918 -0.644442 2.125290 231 212 206
2.324151 0.913176 2.235621 58 57 55
2.157549 0.919720 2.257617 166 172 172
3.165579 -0.434730 2.121401 255 253 244
3.390703 0.033355 2.103516 69 60 61
3.287766 -0.583769 2.091130 81 69 79
3.176374 -1.108496 2.079569 76 70 70
2.957667 1.243618 2.086063 178 190 188
3.407709 1.038588 2.098051 24 21 28
3.351329 0.050944 2.113960 238 239 233
3.371978 0.144892 2.106473 255 253 243
2.741932 1.157202 2.172133 45 45 45
3.520638 -0.186292 2.078934 221 207 196
2.955207 0.631596 2.170539 249 227 203
3.176374 -1.108496 2.079569 76 70 70
2.678884 0.202938 2.188541 247 238 229
2.841526 -0.429405 2.151801 255 231 220
2.719690 -1.019007 2.122131 79 75 64
2.577639 1.328701 2.131096 208 212 213
3.135295 0.044354 2.140590 238 234 223
3.501769 -0.440789 2.068761 225 211 202
3.194818 0.136351 2.129090 253 236 226
2.043117 0.757408 2.266761 81 70 64
3.397953 -0.428986 2.081498 255 246 233
2.778343 1.317393 2.113703 56 58 57
2.821625 -1.022140 2.118019 255 251 237
2.944961 -0.177081 2.153312 255 248 234
3.103825 0.395588 2.147577 102 83 77
2.404347 0.751460 2.222814 250 241 236
3.057837 -0.113513 2.149213 242 242 230
3.457277 0.382074 2.104034 255 251 237
3.630850 -0.112413 2.071190 89 79 70
3.063074 0.888067 2.164437 48 39 42
2.408834 0.919128 2.224969 77 75 78
2.499744 0.624718 2.216466 63 49 46
2.306233 0.670220 2.226031 218 203 198
3.779205 -0.760059 2.031505 74 69 63
3.201839 -0.507099 2.100497 98 69 63
2.336232 -0.377718 2.196329 232 220 206
3.508424 0.611873 2.098654 88 81 75
2.142552 0.522712 2.238187 254 250 241
2.232903 1.022490 2.226877 38 31 39
3.352245 -0.672076 2.076629 251 231 224
3.053430 0.858202 2.164392 204 190 187
2.828614 -0.206898 2.172618 76 65 61
3.561425 0.378637 2.081480 255 251 245
2.464116 0.028379 2.203176 56 49 41
3.670283 -0.023114 2.059515 120 104 105
2.164711 -1.099394 2.191079 61 46 49
2.390909 -0.513355 2.184079 111 98 92
3.291329 0.740206 2.132058 67 55 57
2.501429 -0.647775 2.170210 247 239 226
2.770470 0.929064 2.191527 122 137 140
3.571097 0.449739 2.085521 229 215 204
3.790671 1.079791 2.054435 220 206 195
3.864092 -0.343791 2.027851 255 254 243
3.139531 0.527179 2.145154 104 96 85
3.082720 -0.046099 2.139146 252 224 210
2.359456 1.149876 2.214642 189 188 184
3.416252 0.215895 2.106501 117 97 90
3.304815 -0.671636 2.082097 255 242 236
2.710310 -0.024057 2.182319 252 251 233
2.488599 -0.163683 2.197410 242 226 210
3.502431 0.094147 2.091687 85 75 74
2.647440 -0.931844 2.148380 255 250 247
3.324327 1.103164 2.107177 237 226 220
2.877072 -0.992019 2.110899 255 243 236
2.740963 -0.038609 2.177852 255 253 243
2.249985 0.339627 2.227980 56 37 41
3.196283 -0.673873 2.099037 255 249 245
2.728285 -0.493071 2.160100 255 252 234
2.733192 -0.983913 2.131767 60 44 54
3.588557 0.932941 2.091998 34 30 29
3.230480 0.877802 2.143832 237 229 226
2.318704 0.972900 2.211690 207 207 205
2.712065 -0.120773 2.181761 233 234 226
2.382007 0.226257 2.212601 222 209 201
2.835100 0.608819 2.184145 247 242 238
3.208534 -0.511408 2.103422 236 219 212
2.296467 0.923945 2.212360 212 217 220
3.581629 0.204308 2.078140 217 208 199
3.784058 -0.341724 2.037097 255 255 245
3.802500 0.937271 2.073674 69 64 61
2.394398 -0.053090 2.215250 75 70 66
2.735696 -1.106461 2.134065 68 63 57
2.069564 -0.453338 2.222630 255 247 240
2.957263 -0.472557 2.135312 255 250 247
3.061574 -0.410041 2.127144 255 255 237
2.724415 0.626157 2.197361 87 74 68
2.266872 -0.005156 2.219403 56 39 47
2.036955 0.839511 2.276129 201 197 194
2.379556 0.429968 2.216360 221 202 195
2.934567 0.962113 2.152830 220 215 211
2.285726 -0.475515 2.201156 78 63 66
2.993703 1.237706 2.084367 26 25 23
2.789572 -1.094304 2.125828 238 232 220
3.847029 0.663711 2.054115 241 230 212
3.418757 -1.242234 2.046266 255 246 243
3.295950 0.931008 2.138345 64 55 60
3.287407 -1.201101 2.060118 239 226 209
2.515825 -0.037967 2.196217 95 76 70
2.475669 -0.201029 2.194646 254 255 243
2.593751 0.388452 2.203285 43 34 39
2.899337 0.196375 2.172805 250 230 221
3.142036 -0.486360 2.111321 255 252 243
3.154395 0.775940 2.145007 255 251 244
2.502729 0.180776 2.201916 216 198 186
2.584387 -0.040746 2.190048 255 255 244
2.607458 -0.780222 2.150546 246 229 221
3.393988 -0.509814 2.081350 252 255 246
2.248394 0.118007 2.216879 255 255 246
3.314084 1.169054 2.115736 59 57 58
2.973018 -0.692538 2.118942 244 230 219
3.173229 0.952420 2.127353 72 70 75
2.800740 0.932842 2.173956 219 229 228
2.862770 0.972921 2.164694 31 31 33
2.889689 0.691659 2.176787 134 106 102
2.494914 -0.168584 2.194123 255 254 239
2.623045 -0.599485 2.157627 255 252 241
2.596907 1.146875 2.185141 204 198 198
3.395118 -1.160805 2.054206 219 206 198
2.481017 -0.123280 2.196239 255 254 248
3.345208 -0.768275 2.070855 255 228 219
3.659395 1.249617 2.009494 248 255 255
3.634001 -0.760919 2.050501 79 69 60
3.287387 0.037639 2.115782 233 206 199
3.517792 -0.871665 2.053231 65 49 52
2.232607 1.061051 2.226991 58 56 57
2.198958 0.019088 2.218394 255 246 236
2.799587 0.952041 2.163082 242 242 240
2.555009 -0.186741 2.189725 102 87 82
2.912900 0.130810 2.173220 255 254 246
3.103158 -0.287692 2.131701 248 228 219
2.721796 -0.779323 2.143941 241 239 224
3.604210 -0.436667 2.069242 76 66 57
2.924972 0.155346 2.170457 255 251 245
3.501065 -0.114180 2.095874 72 69 64
2.726803 0.449107 2.184879 129 95 86
3.494458 -0.198866 2.080930 251 242 235
2.276370 -1.009089 2.185297 246 247 231
2.234732 0.946725 2.224334 30 28 31
2.776516 0.936752 2.170715 104 94 95
2.959057 1.150554 2.145682 240 240 238
2.082617 -0.767589 2.215830 249 235 226
3.945461 0.417486 2.034686 83 67 67
2.514081 -0.497209 2.178973 64 58 58
3.829361 1.176201 2.057555 36 36 36
3.875870 1.158914 2.050571 52 51 56
2.038989 0.166116 2.243148 52 46 48
2.696479 -0.453717 2.161325 251 236 231
2.877072 -0.992019 2.110899 255 243 236
3.809058 0.199180 2.047112 228 215 196
2.050792 -0.338496 2.231219 81 65 66
2.558547 0.603058 2.200186 255 254 242
2.526532 1.308875 2.135267 164 168 169
2.418112 -1.100207 2.162032 248 237 231
3.058846 -1.172038 2.094188 228 208 201
2.726478 0.784665 2.199228 52 44 42
3.424539 -0.848287 2.059573 222 205 195
2.935225 -0.432095 2.137671 87 68 61
3.046066 1.404654 2.078941 209 223 223
2.089775 -0.222149 2.228497 224 213 207
2.950750 -0.516844 2.135931 254 250 239
2.487340 -0.006804 2.199945 58 50 48
2.075561 0.100412 2.231174 211 193 189
2.320808 -0.529837 2.194155 255 253 241
3.532063 -0.426648 2.066200 255 243 236
2.335731 -0.367202 2.194493 247 233 224
3.318686 1.013585 2.107986 162 149 140
2.804529 0.353474 2.180578 242 231 227
3.333538 -0.344148 2.095680 67 41 28
3.694728 -1.169787 2.017861 232 229 220
2.306321 -1.019383 2.178642 119 102 92
2.617983 0.916427 2.206133 91 76 79
3.178902 0.994468 2.120493 216 205 199
2.831140 0.233989 2.176247 238 219 202
2.456326 -0.137522 2.194394 239 231 212
2.095421 -0.200866 2.225796 83 53 53
3.497021 0.383170 2.099856 76 70 74
3.458813 1.220742 2.029156 78 81 86
2.730103 0.862005 2.193758 227 219 217
3.542596 -0.667881 2.057907 255 255 248
3.355622 -0.521924 2.080774 85 73 61
3.420061 -0.108646 2.097047 255 252 246
2.730757 -0.663688 2.148760 49 33 44
3.068618 -1.020452 2.095206 235 235 227
2.273410 -0.365247 2.204787 255 255 239
2.040067 0.594129 2.259637 59 50 45
3.381742 0.344315 2.112565 61 51 49
3.972008 -0.518923 2.019606 219 212 204
3.599550 1.253165 2.019783 48 60 58
2.770470 0.929064 2.191527 122 137 140
3.501065 -0.114180 2.095874 72 69 64
3.520007 -1.174099 2.031752 199 178 173
2.286334 -0.496439 2.200986 63 51 53
2.266516 0.784377 2.237227 229 210 196
2.618893 -0.729833 2.158045 238 237 232
2.765085 -1.172419 2.119047 255 249 247
2.846226 0.938345 2.176872 229 240 236
3.238721 -0.999658 2.073690 255 248 239
3.572075 0.858722 2.099906 104 105 97
2.607758 1.319744 2.129147 186 195 194
2.053349 -0.161927 2.235026 94 78 88
2.686909 1.231856 2.119436 50 51 53
3.499782 -0.349411 2.075650 255 253 247
2.404285 -0.372868 2.196437 71 63 61
2.467202 1.080939 2.202491 44 38 42
2.535517 0.109958 2.199626 43 39 30
2.471356 0.673032 2.214710 255 248 227
3.670156 0.282788 2.062310 218 195 187
2.849041 -0.530149 2.140683 209 200 191
2.721555 0.629328 2.195967 255 249 238
3.522981 0.928094 2.092325 54 52 53
3.720548 0.776130 2.075034 67 60 54
1.976146 0.831885 2.275969 223 209 196
3.570765 -0.914768 2.042850 255 254 235
3.045045 0.390422 2.161148 50 44 44
2.510565 -1.163200 2.151631 68 67 65
2.663471 -0.826432 2.144010 101 90 86
3.012289 0.694812 2.159258 103 64 57
3.112337 -0.348882 2.119629 138 98 90
3.177275 -0.752674 2.091445 255 253 243
2.143167 0.371690 2.236983 103 91 91
3.030187 -1.015982 2.092500 233 224 217
2.839704 0.198407 2.181752 74 61 53
2.471604 -0.936916 2.162558 241 228 219
2.831707 0.855241 2.190672 212 210 197
2.845119 0.291069 2.177968 255 229 218
3.808925 0.300735 2.054729 255 254 244
3.165579 -0.434730 2.121401 255 253 244
2.393701 0.119387 2.212429 254 255 251
3.033115 1.315257 2.085087 26 26 28
3.708895 0.611408 2.067354 255 248 241
2.666739 0.126691 2.184757 136 103 98
3.764051 -0.011014 2.042780 120 105 100
3.504351 -0.029820 2.091713 246 245 240
2.832607 -1.238668 2.110526 70 67 62
3.471672 1.165475 2.091844 88 87 82
2.550712 1.324293 2.137291 87 93 93
3.251161 1.148233 2.118036 56 56 54
2.726569 -0.179099 2.172000 255 249 235
2.387324 0.579371 2.224431 47 38 43
3.527538 -0.425990 2.067406 255 244 239
3.009742 -0.447062 2.126597 244 234 225
3.576500 0.860508 2.091166 96 80 80
3.127218 0.686229 2.145602 89 75 64
2.510868 -0.202134 2.190363 249 240 235
2.843522 -0.872923 2.125198 248 245 240
3.110181 1.240496 2.073238 28 26 27
2.312731 1.146648 2.219094 66 66 66
2.083305 -0.209452 2.233541 255 243 233
3.596571 -0.844825 2.036241 255 251 233
3.630052 0.619810 2.080959 254 240 227
2.705832 1.042258 2.176048 41 39 42
2.825583 -0.260360 2.156392 98 83 76
3.079628 0.753623 2.155775 254 230 218
2.455313 0.024705 2.198583 252 225 218
2.718392 -0.355868 2.166505 93 65 61
2.527075 0.109180 2.197486 16 9 3
3.095836 1.021325 2.136958 46 50 49
2.496788 0.808276 2.218384 61 44 50
2.029987 -0.129649 2.242180 255 255 243
3.492608 0.379620 2.099350 244 239 236
2.069690 -0.714772 2.220297 70 59 57
2.440909 0.040483 2.204097 129 105 101
2.160382 0.078556 2.228258 66 56 57
2.760226 0.290538 2.185216 255 241 233
2.624257 1.123060 2.185132 24 24 24
3.752914 1.231278 2.002671 231 242 244
3.781799 1.099018 2.054469 226 221 202
2.302012 -0.749473 2.186481 249 236 228
3.717089 0.997023 2.053842 46 41 45
2.825326 -0.100214 2.168943 255 254 244
3.404692 0.606941 2.112595 242 225 217
2.772838 1.131169 2.171697 216 219 210
2.218649 0.925961 2.225274 225 239 239
2.335025 0.911395 2.236839 218 214 213
2.494532 -0.148389 2.195564 245 238 222
3.156459 -0.768740 2.093716 250 234 221
3.480407 0.383354 2.104720 255 252 240
3.245996 -0.271888 2.116844 254 246 233
2.868532 -0.672385 2.132983 172 154 142
2.964994 -0.756052 2.115341 109 70 63
2.143136 -1.028633 2.202142 253 246 236
3.842729 -0.832504 2.021252 55 38 30
3.294118 -0.882697 2.070583 251 233 233
2.991494 -0.770629 2.109990 186 179 163
3.343725 0.868334 2.128204 255 251 236
3.507740 0.569569 2.099498 83 61 64
3.504552 0.939973 2.092905 228 237 234
3.636067 -0.034877 2.066766 255 252 243
2.847472 -0.610159 2.138507 251 237 226
3.012289 0.694812 2.159258 103 64 57
2.377362 0.102114 2.212611 240 233 217
2.730757 -0.663688 2.148760 49 33 44
2.627811 0.952895 2.184546 44 44 44
3.601987 0.300174 2.083535 255 247 241
3.381869 0.213926 2.104285 255 251 236
3.066116 -0.397063 2.128404 94 90 87
2.938791 -0.436707 2.137182 101 76 72
2.391713 -0.891084 2.176127 242 248 238
2.799587 0.952041 2.163082 242 242 240
3.436990 0.455981 2.100825 255 254 244
3.151077 -0.510490 2.111226 142 113 99
3.051133 -0.448913 2.126744 239 222 212
3.715644 0.283719 2.065492 225 214 208
2.733033 0.532585 2.188142 130 115 110
3.514151 -0.556679 2.061215 255 250 244
2.996125 -0.036157 2.155244 255 250 238
3.334445 0.782660 2.127191 255 244 229
3.462539 -0.350542 2.083843 255 253 244
2.798296 0.511648 2.180236 110 90 81
3.850971 -0.433180 2.035105 83 74 67
2.282260 -1.117103 2.185303 60 56 45
3.659762 -0.667438 2.041064 255 242 235
2.266324 0.777301 2.238802 223 204 190
3.741323 0.697943 2.077726 83 72 68
3.301888 -1.016810 2.068949 253 240 231
3.785322 -0.667089 2.029183 255 239 230
2.957496 0.812343 2.175897 72 61 65
3.733099 0.704014 2.073391 255 252 246
2.867105 -0.037867 2.173218 248 244 232
3.510510 -0.691890 2.058073 120 116 115
3.175312 -0.207473 2.122050 232 213 206
2.398021 -0.406468 2.195691 49 39 38
3.395243 0.656246 2.116314 88 72 73
3.171453 1.146488 2.126959 40 41 43
2.260013 -0.950950 2.190447 83 74 57
3.274931 -1.081460 2.071787 235 219 204
3.366681 1.335638 2.044991 34 37 46
3.395752 0.039763 2.100918 226 201 194
2.810171 1.238632 2.106412 41 41 39
3.061157 -1.245107 2.083326 251 242 235
3.192023 -0.919808 2.079352 251 231 220
3.625401 -0.030615 2.073196 63 53 52
3.382767 -0.835455 2.067826 237 228 219
2.825735 0.922606 2.189371 88 80 78
2.577058 1.319891 2.131541 198 214 214
3.747146 -0.724021 2.031646 248 240 221
3.831789 -0.762474 2.025233 255 253 246
3.179267 -0.773797 2.098592 65 61 58
2.678087 1.159946 2.175456 230 248 248
2.732876 -0.947591 2.133322 65 54 58
2.611104 0.739072 2.206232 76 64 68
3.295588 0.939464 2.122269 229 241 241
3.592649 0.937345 2.096387 217 219 216
2.394127 -0.425512 2.192570 213 194 180
2.864285 -0.837010 2.119413 255 235 229
2.889069 1.153717 2.148334 51 53 48
2.491594 -0.159908 2.196800 69 54 59
2.870915 -0.435919 2.146324 86 55 50
3.182130 0.925185 2.138727 35 34 32
3.352581 0.363601 2.113742 255 234 223
3.750875 1.224115 1.998230 53 57 66
3.221435 -0.755228 2.087443 255 254 245
2.831262 0.118655 2.179387 92 88 87
2.143395 -0.288474 2.213662 240 228 216
2.510856 -1.302148 2.140311 55 49 49
3.013927 -1.248804 2.088280 219 207 193
2.606660 0.231813 2.196874 89 77 79
2.481017 -0.123280 2.196239 255 254 248
2.964026 -1.146536 2.095211 238 230 209
2.222140 0.842850 2.246250 252 245 237
3.450744 0.219508 2.095014 255 250 242
3.072282 -0.370239 2.126213 243 214 206
3.972008 -0.518923 2.019606 219 212 204
3.517673 -0.879490 2.052074 81 72 75
3.247990 0.121886 2.124549 255 243 235
3.477598 -0.600157 2.063956 252 245 235
2.831818 1.230310 2.097027 202 211 208
2.604098 -0.656390 2.156545 97 83 72
3.341460 0.050981 2.112711 238 238 230
3.381742 0.344315 2.112565 61 51 49
3.293780 0.769391 2.134976 111 100 96
3.243747 -0.515269 2.110249 255 251 247
3.605904 1.173816 2.073335 202 218 215
3.139426 0.440721 2.143445 207 194 188
3.038416 0.226001 2.159125 251 227 215
3.642920 0.848976 2.083905 233 214 210
2.972533 -1.004062 2.102455 253 243 231
3.822993 0.937680 2.075476 43 35 32
2.999585 -0.923729 2.098854 232 224 213
3.406149 -0.926781 2.061818 106 99 93
3.250999 1.083909 2.117071 45 45 47
2.318527 0.957301 2.213206 234 232 233
2.615727 0.847394 2.212156 57 54 47
2.729459 0.880146 2.194851 70 57 51
2.587654 0.413139 2.203760 235 228 212
3.706546 -0.172268 2.051932 95 68 61
2.508091 -0.042394 2.191584 255 255 241
3.491919 -0.670053 2.065791 255 253 243
2.457516 -1.178953 2.153742 252 245 235
3.385021 -0.761065 2.059950 76 56 47
3.784111 -0.423115 2.029797 255 250 243
2.669783 -0.860913 2.139594 244 229 226
2.479338 0.288188 2.208573 64 47 53
2.949932 -0.529438 2.132195 255 236 225
3.127334 -0.123892 2.132586 241 232 223
2.702494 1.130697 2.177833 43 43 45
3.378309 0.052989 2.107712 99 100 92
2.345779 0.038194 2.222260 255 255 244
3.325071 1.253102 2.050847 201 216 209
3.633895 -1.154837 2.022772 218 213 209
3.161210 0.497879 2.146658 255 237 230
2.140996 -0.531519 2.215533 255 253 239
3.756314 1.165740 2.055776 234 233 229
2.710642 -0.699660 2.151537 255 243 233
3.776300 -0.928726 2.022719 253 241 229
3.301967 0.847036 2.128227 219 201 197
2.709922 0.513733 2.195668 49 39 37
3.385108 -0.114260 2.107831 69 62 52
3.731553 -0.532345 2.041059 255 252 243
3.173229 0.952420 2.127353 72 70 75
3.121090 -1.162283 2.079372 255 239 231
3.552531 -0.663664 2.049623 107 82 78
2.219673 0.102279 2.219910 230 215 210
3.796027 1.139352 2.055814 49 47 50
2.493146 0.790609 2.219396 242 225 215
2.889689 0.691659 2.176787 134 106 102
3.782394 0.544501 2.056947 123 92 90
2.589816 0.385466 2.204053 229 222 212
3.255426 0.377014 2.127079 171 127 118
2.521741 0.847967 2.212471 110 102 99
2.819298 0.386397 2.182656 57 40 48
2.602277 0.755759 2.210856 183 179 170
3.605131 -0.749512 2.043175 255 248 242
3.013353 1.320768 2.089104 40 42 41
2.368706 0.266734 2.219170 255 254 245
2.899856 0.863316 2.182644 239 229 230
2.861098 0.855831 2.183341 250 231 224
2.734625 -0.052352 2.180054 229 209 200
3.137281 0.699163 2.148620 241 216 209
3.833516 0.696165 2.061456 70 56 55
2.730109 -0.737717 2.143911 89 59 57
3.335742 -0.042393 2.105518 246 221 214
2.278256 0.525513 2.229815 118 100 96
2.833398 0.865200 2.188111 241 235 223
2.627356 -1.251996 2.131276 204 202 190
3.610019 -0.024698 2.074721 255 254 243
2.498354 -0.043429 2.198797 254 255 241
3.131737 1.246335 2.067983 201 216 211
2.619939 1.065953 2.184573 201 194 186
2.490324 -0.009338 2.198210 255 253 240
2.330856 0.348135 2.218980 252 232 225
2.662417 1.301914 2.117972 59 57 58
2.164228 -0.247838 2.222226 39 30 31
3.841027 -0.485427 2.027607 255 249 237
2.758004 0.447919 2.186091 255 253 244
3.416517 0.362840 2.103935 250 236 223
3.518093 0.622296 2.103144 255 255 250
2.930990 -0.928544 2.119506 255 251 239
2.210799 -0.463251 2.206437 223 204 197
2.242518 0.747411 2.236025 255 255 241
3.084643 -0.368390 2.125599 233 226 218
3.324355 1.001254 2.105659 206 188 188
2.606521 0.266406 2.197366 75 66 67
3.489233 1.045387 2.082073 196 191 185
3.072193 -0.524890 2.124890 79 71 69
2.491301 0.028124 2.205213 85 76 67
2.405854 0.768331 2.224463 137 105 106
3.160560 0.520879 2.148004 249 235 224
2.714315 0.016693 2.182004 87 78 79
3.272911 0.424939 2.129160 52 31 30
3.250691 1.115359 2.115474 43 43 43
2.660589 -0.868427 2.140837 255 248 238
2.547531 -0.282740 2.186026 255 255 244
2.263700 -0.001178 2.217614 219 211 198
2.879779 -0.628159 2.135341 255 245 236
2.369518 0.752410 2.224950 242 236 222
3.572216 -0.441628 2.057583 101 76 71
3.071900 1.332640 2.072304 74 75 77
3.030187 -1.015982 2.092500 233 224 217
3.180045 -1.136427 2.076203 197 179 167
2.327493 0.844045 2.231829 95 85 84
3.536060 -0.036195 2.082454 244 230 219
3.033707 -0.832727 2.102261 95 82 76
2.838864 -0.290134 2.156377 228 210 200
2.281358 -1.170639 2.174289 92 86 88
3.714196 0.616677 2.074816 72 58 57
3.599864 0.137972 2.078743 255 255 250
2.883526 0.358786 2.175826 78 75 66
3.127713 -0.760054 2.102701 221 212 203
2.168592 -0.755525 2.209644 76 71 67
3.610894 0.050250 2.081054 239 238 234
3.410748 0.782442 2.123686 186 167 160
3.486878 -0.441101 2.071995 239 229 220
2.309436 0.915855 2.245324 47 41 43
3.247252 -0.542161 2.096716 255 253 239
3.772384 -0.421269 2.033064 144 121 113
2.887253 -0.763497 2.128999 246 231 224
3.518455 -0.411983 2.069224 99 94 98
3.746673 -0.860600 2.030825 113 98 93
2.424637 0.523663 2.222937 255 255 241
2.539836 0.147850 2.196061 105 70 68
2.790749 1.159119 2.171082 59 59 59
2.843997 -0.355999 2.151772 107 90 83
3.404556 -1.131091 2.051471 243 223 216
3.173876 -0.461284 2.112775 83 75 73
3.477549 0.452328 2.100171 57 44 38
3.336764 -0.834721 2.069861 255 249 242
3.000946 -0.528793 2.127652 255 249 240
3.054514 -1.004723 2.097591 255 253 247
2.770453 0.850170 2.197296 239 237 224
2.714315 0.016693 2.182004 87 78 79
3.132248 1.371338 2.072909 171 184 177
2.492969 0.458892 2.208997 255 240 233
3.631408 0.852073 2.089889 61 55 55
3.762814 -0.008993 2.043034 255 252 250
3.190788 -0.443537 2.108479 247 224 216
2.410261 -0.139651 2.199833 253 239 228
2.339129 -0.420027 2.194402 113 100 94
2.702574 -0.741295 2.147013 90 73 66
2.635805 -0.198360 2.180327 135 112 106
2.280954 -0.455398 2.208702 60 53 47
2.731271 -0.777033 2.146740 97 88 81
2.832718 0.373290 2.186249 162 117 111
3.288610 -0.216334 2.112190 61 53 50
3.086982 0.851253 2.164250 30 24 24
2.364008 0.412534 2.219377 235 231 219
2.973233 0.057928 2.154577 255 252 244
3.721031 0.938989 2.083395 109 110 112
2.922833 0.692550 2.173512 113 89 87
2.019004 -0.045389 2.241416 98 80 78
2.047634 -0.323019 2.232384 255 251 245
2.845844 -0.913581 2.126364 248 246 234
2.660720 0.777470 2.201174 108 89 82
3.280143 -0.754611 2.083692 251 245 231
3.602237 0.208914 2.082253 95 80 75
3.744498 -0.747353 2.037507 50 49 45
2.473590 -0.040478 2.199168 69 35 36
2.618605 1.128277 2.187109 199 193 193
2.270740 -0.823960 2.194184 232 214 202
3.394804 -1.178117 2.050668 255 248 238
2.940884 0.013799 2.163781 255 255 253
2.939289 0.033647 2.169449 49 39 37
3.557580 0.933029 2.096434 72 71 66
3.063950 -0.916658 2.101559 71 61 69
3.439184 -0.765940 2.061407 231 227 216
2.164718 -1.092711 2.191653 68 56 58
2.515980 -1.296373 2.135888 237 224 205
3.058183 -0.680716 2.119049 212 208 197
3.421438 0.203176 2.100696 255 248 241
3.327621 -0.407143 2.091462 124 97 86
2.486133 -0.025312 2.199197 238 219 205
3.069832 0.210403 2.153303 255 252 247
2.698472 -0.778431 2.141897 248 244 232
2.484848 -0.599924 2.173860 106 77 71
2.602711 0.225160 2.196045 253 249 240
2.366988 0.415298 2.220326 67 42 46
2.824761 0.770805 2.186257 255 252 246
3.885823 0.942075 2.067446 102 102 100
3.517631 0.860051 2.105385 228 225 220
2.775033 0.199046 2.007036 93 65 62
3.045045 0.390422 2.161148 50 44 44
3.063921 1.328920 2.076699 66 70 71
2.546607 1.126916 2.196177 51 51 53
3.288610 -0.216334 2.112190 61 53 50
2.824113 0.269197 2.184463 58 48 47
3.518191 -0.194931 2.087420 82 73 64
3.761189 -0.828999 2.029640 243 226 218
2.916576 0.372023 2.172385 171 141 133
3.090546 0.790617 1.784098 55 54 52
2.264073 -0.022365 2.218222 226 219 209
2.525672 1.324571 2.135998 70 80 81
3.603849 0.688758 2.083234 245 232 223
3.511683 -0.508713 2.063844 255 252 250
2.613616 -1.087333 2.141536 230 218 204
3.245151 1.417987 2.059155 198 210 206
2.669837 0.785997 2.196915 93 78 75
3.284473 0.322666 2.120996 134 119 112
3.174838 -0.998327 2.083415 255 246 239
3.751989 -0.499317 2.036289 225 212 204
2.134395 -0.948041 2.208284 255 249 242
3.304009 -1.079992 2.064401 248 225 209
3.393355 -0.590123 2.076794 255 251 241
3.707079 0.939468 2.085701 125 125 127
2.055488 -0.307786 2.231865 239 227 215
3.296933 -0.360635 2.109528 71 60 56
3.250613 -0.592905 2.096677 255 253 248
2.427226 -1.100440 2.160767 248 229 222
3.596169 0.689155 2.085670 235 222 216
2.304390 -0.388219 2.197397 130 110 103
2.036955 0.839511 2.276129 201 197 194
3.457999 -1.078200 2.048566 222 205 195
2.649072 -0.534511 2.162629 108 94 85
3.451607 -0.520388 2.069477 247 237 227
2.311765 1.048609 2.218359 42 42 42
2.958397 -0.606966 2.134894 76 63 54
2.835721 -1.231712 2.109726 229 219 210
3.256065 -0.591741 2.092033 246 241 238
3.733370 -0.584848 2.041156 236 232 221
2.391026 -0.605097 2.184992 255 255 243
2.877275 0.044547 2.173082 255 254 250
3.021095 -0.287708 2.139428 255 227 219
3.152489 -0.758941 2.094289 45 32 23
2.935225 -0.432095 2.137671 87 68 61
3.368356 0.135284 2.107529 189 173 173
3.022579 -0.516235 2.124574 127 109 105
3.378243 -0.858582 2.061753 236 224 212
3.298431 0.450380 2.130278 86 76 66
2.937567 1.395510 2.093088 34 34 36
2.744166 0.029102 2.177735 239 236 227
2.677428 0.125254 2.180378 255 252 243
2.606382 0.223867 2.194802 86 77 78
3.087391 -0.362332 2.131788 73 55 51
3.291979 0.058193 2.116123 97 52 49
2.864929 -0.693445 2.127546 238 225 209
3.804425 0.622984 2.058774 117 108 103
3.032331 0.442363 2.157923 249 238 234
3.761189 -0.828999 2.029640 243 226 218
3.555884 -0.185710 2.073315 255 252 243
3.167526 0.854445 2.151516 124 125 117
2.621226 -0.358713 2.171619 105 86 79
3.328118 -0.343241 2.094401 87 62 65
2.124550 -0.545458 2.216302 241 236 230
2.515752 -0.481562 2.179744 110 104 106
2.268633 0.108808 2.225513 86 79 71
3.227770 0.300793 2.127406 130 98 87
3.403618 -0.981155 2.060822 82 76 80
3.845508 0.535210 2.054271 72 65 57
3.633480 -0.925598 2.040392 75 60 55
3.408466 -0.440975 2.082407 255 254 246
2.602106 0.145602 2.188319 255 235 228
2.730500 -0.837934 2.140731 135 123 127
3.142036 -0.486360 2.111321 255 252 243
2.895765 0.196542 2.173803 211 192 185
3.289681 -1.015199 2.069167 251 238 230
3.041413 0.852968 2.158478 255 255 244
2.550712 1.324293 2.137291 87 93 93
3.786665 -0.351230 2.033834 64 57 49
2.225933 0.709652 2.235828 254 239 232
3.507129 -0.247865 2.076692 245 238 220
3.073512 -0.839727 2.097378 85 74 68
3.661531 0.208829 2.075831 24 10 7
3.239528 0.054587 2.123302 113 85 74
3.290759 -0.590842 2.089468 255 250 241
3.720407 0.279716 2.063119 48 33 40
3.385484 -0.107752 2.102648 255 252 250
3.071969 -0.740776 2.105879 255 254 230
3.422581 0.363739 2.107345 243 229 216
3.600157 1.251262 2.021254 173 179 179
3.588171 0.860528 2.102087 86 87 82
3.739978 -0.592882 2.042067 42 36 36
3.126524 -0.768475 2.092616 255 241 231
3.718293 1.139383 2.062821 63 61 64
3.276680 0.376032 2.127827 255 252 242
3.347035 -0.119088 2.103838 243 228 221
2.537139 -1.190919 2.140620 254 255 248
3.522488 -0.842777 2.054030 79 71 68
2.201830 -1.077377 2.184220 231 216 213
2.834763 -0.291710 2.157300 105 81 69
3.713995 -0.423918 2.038578 255 247 236
3.270699 0.216378 2.128872 58 48 46
2.300502 -0.377999 2.199234 235 219 206
2.610970 -0.765343 2.153566 255 254 248
2.386848 0.767568 2.234169 255 250 249
2.742350 0.191750 2.189999 234 218 203
2.510582 -0.472491 2.182271 253 253 243
3.630308 -0.140948 2.062719 255 244 233
2.750075 -0.530732 2.154969 82 65 55
2.940997 0.952501 2.155440 72 70 71
3.719036 -0.168815 2.048335 255 248 240
2.843997 -0.355999 2.151772 107 90 83
2.951818 0.627124 2.172459 106 88 86
2.879326 0.613288 2.175906 148 119 111
2.609811 0.229888 2.194129 255 245 233
3.295417 -0.865743 2.071427 255 254 246
3.847319 0.049125 2.039586 113 92 87
3.723519 -0.149085 2.046533 234 221 213
3.886203 -0.499765 2.021756 127 102 98
3.517672 -0.376803 2.073445 92 83 86
2.961708 -0.762813 2.121552 255 247 243
3.861328 0.128149 2.037462 251 242 237
2.150741 0.514168 2.245502 79 72 66
2.171090 -0.423659 2.215379 78 67 73
3.623318 -0.307838 2.059125 90 88 91
3.858359 -0.342733 2.025835 255 254 246
2.624225 1.061450 2.187200 39 37 40
3.356928 -0.042868 2.104431 255 244 232
3.383651 0.301390 2.112459 85 71 70
3.619923 -0.660390 2.049532 60 55 52
2.702404 -0.510972 2.160205 118 98 89
2.767525 -1.007433 2.123928 95 73 62
3.204808 -0.671027 2.091014 254 239 234
3.819467 -0.254951 2.030205 255 252 243
3.345979 0.055056 2.108114 255 251 246
2.501371 -0.667881 2.169940 255 253 237
2.928246 0.611284 2.172376 255 251 241
3.632420 1.159039 2.071321 189 196 189
2.588172 1.148993 2.187750 207 195 195
3.287294 0.778878 2.136781 139 136 127
2.754884 -0.120059 2.174437 255 254 245
3.601348 0.195486 2.078896 88 71 61
2.902744 0.600034 2.177665 243 220 214
3.059653 -0.913387 2.098990 255 255 236
2.143417 -0.054473 2.226783 75 66 67
2.983453 -0.426188 2.131597 255 249 240
3.625439 -0.595874 2.052229 89 79 69
3.954041 0.116928 2.029771 93 85 83
2.573820 0.674734 2.207304 217 204 196
2.863354 1.114415 2.158540 196 192 191
2.479827 0.204370 2.206878 122 104 100
2.924451 -0.113448 2.157579 106 91 84
2.729050 0.774191 2.198415 253 250 243
3.364702 0.687937 2.123999 255 241 234
2.266456 -0.692916 2.197046 251 231 222
3.319287 -0.832514 2.070713 255 247 240
2.833910 0.705079 2.186069 252 236 221
3.370534 -0.501957 2.083149 255 251 240
3.862124 -0.950072 2.015103 94 88 88
2.697528 -0.291597 2.170257 209 199 189
2.613026 -1.082184 2.140534 255 249 237
3.592394 1.250062 2.010953 205 226 221
2.945565 0.993386 2.149817 214 200 197
3.630520 -0.977353 2.037462 81 65 65
3.284889 -0.678805 2.091421 228 229 223
2.371513 0.916988 2.230552 62 60 63
2.178008 0.447127 2.233155 109 80 74
2.708638 0.128027 2.186575 254 254 244
2.511468 -1.194519 2.149420 255 255 247
3.087770 1.250235 2.073407 136 140 143
2.953973 -0.197647 2.153270 255 246 240
2.956633 1.388220 2.086881 157 166 163
3.564610 0.992394 2.079455 47 45 48
3.724234 0.128920 2.059867 254 254 252
3.607075 0.131556 2.080944 74 64 62
3.596233 0.214541 2.091433 204 204 196
3.375933 0.142459 2.106585 50 44 46
3.055508 -0.854478 2.101558 240 230 220
2.934819 0.332840 2.171096 255 242 231
2.880572 0.011303 2.164508 118 95 87
2.824141 0.610257 2.179061 94 67 58
2.077859 -0.386215 2.222773 235 218 210
3.819913 -0.831877 2.025385 254 243 237
2.388701 -0.510470 2.187335 123 110 102
3.026120 0.033504 2.147898 239 228 222
3.296208 -0.107322 2.106537 255 249 243
2.905966 -0.436960 2.142345 111 92 85
2.779879 0.676938 2.187543 248 215 206
2.322598 1.143561 2.217115 63 62 60
3.074203 -0.237784 2.132091 255 241 226
2.691631 0.930934 2.178423 237 246 245
2.397077 -0.570151 2.185157 81 72 75
2.951232 -0.498205 2.136965 255 253 244
3.564293 0.970399 2.076572 49 49 57
3.487710 0.203740 2.091886 247 237 228
2.039814 0.793773 2.266445 65 40 44
2.024330 0.750365 2.265139 213 196 188
2.842994 -1.084846 2.117787 58 48 49
2.909447 0.043039 2.169481 249 249 239
3.268284 0.441598 2.131007 253 255 244
2.832259 0.179817 2.173414 255 250 242
2.903055 0.739384 2.175486 99 81 71
3.409937 -0.833103 2.062846 255 243 232
3.702911 -0.171747 2.050102 99 79 70
2.053182 -0.175894 2.234286 103 92 96
2.402040 -1.032810 2.166623 254 253 248
2.728275 -0.051511 2.172739 255 247 239
2.635056 0.834884 2.199087 240 232 219
2.612296 0.541419 2.203892 92 81 85
2.835815 0.534589 2.185033 94 82 82
2.370156 0.109305 2.212854 82 72 70
3.616894 0.379535 2.080412 255 253 250
3.154332 0.161972 2.140319 255 255 244
2.266455 -1.103423 2.176028 229 220 211
3.250637 1.125710 2.117359 52 50 51
3.118808 0.038219 2.136325 54 47 39
3.649159 -1.170673 2.020354 249 248 243
2.687152 -0.442125 2.164924 252 242 232
2.616716 1.014233 2.184609 175 176 170
3.618892 0.782036 2.090541 255 254 237
2.930041 1.108142 2.153358 199 192 184
3.922241 -0.515714 2.018997 255 254 250
3.254392 1.413071 2.060538 32 35 42
3.034551 -0.368877 2.132238 248 230 226
2.506115 -1.192026 2.147876 251 243 240
2.879190 -0.268894 2.155672 98 83 80
2.816443 1.246924 2.107865 192 203 199
2.624257 1.123060 2.185132 24 24 24
3.355374 -0.359897 2.088695 248 240 229
2.498930 -0.291079 2.193254 63 55 53
3.400701 0.524673 2.111382 250 235 228
2.524525 -1.295586 2.139285 248 243 239
2.890223 -0.048275 2.162927 253 240 232
3.750199 -0.142951 2.044981 249 241 230
2.542868 -0.294930 2.184799 255 237 228
2.491796 0.784688 2.221510 254 240 229
3.012426 0.776250 2.164890 255 246 240
3.725986 0.119174 2.058629 77 71 71
3.077749 0.523726 2.155765 44 30 19
2.045727 -0.863823 2.218686 239 231 218
3.623124 -1.083758 2.035452 236 238 227
3.963822 0.709356 2.050060 73 57 60
2.712724 -0.533751 2.154740 107 87 78
2.276625 0.621982 2.232254 55 42 51
2.816195 0.387992 2.182653 255 252 243
2.952859 -0.046366 2.156865 231 221 211
3.189976 -0.745952 2.089704 246 242 233
3.448730 0.220124 2.099559 255 249 237
3.286026 -0.429518 2.101336 255 253 237
3.714376 -1.248258 2.009996 79 77 65
2.957823 -0.032956 2.158885 255 250 241
2.068633 -0.548030 2.224391 255 249 243
3.557580 0.933029 2.096434 72 71 66
3.394487 0.677023 2.118824 61 49 53
3.783886 -0.680327 2.030457 255 248 245
3.954041 0.116928 2.029771 93 85 83
3.964852 0.060890 2.031348 244 239 235
3.030544 -0.874243 2.102320 255 251 243
2.952680 -0.995581 2.108580 53 49 50
3.250999 1.083909 2.117071 45 45 47
3.018595 0.962839 2.145370 55 55 57
2.709434 0.313174 2.188944 255 246 234
2.707877 -0.532109 2.156685 255 249 239
3.332830 0.783716 2.124580 75 58 42
2.953529 -0.501395 2.136457 56 43 52
3.751871 -0.879483 2.026091 249 237 221
3.279511 0.809124 2.132728 58 48 47
2.766997 0.029283 2.175894 235 232 223
2.386045 0.852261 2.231039 71 62 65
2.170593 -1.042771 2.191656 241 209 194
3.057481 0.629520 2.158770 252 222 212
3.967944 -0.522552 2.021019 81 72 67
2.607658 -1.256614 2.132196 215 208 198
2.707027 0.943292 2.176718 81 82 84
2.614007 -1.032609 2.145329 52 37 40
3.096693 0.637624 2.154430 255 234 223
2.553677 -0.184833 2.188138 255 247 243
2.830081 0.837711 2.185541 249 220 212
2.729846 0.826959 2.198193 232 225 217
3.416617 -0.765312 2.064872 255 250 242
3.650898 -0.157928 2.058465 254 231 223
2.041914 0.119772 2.240673 95 85 86
3.378949 -0.107762 2.101248 255 253 250
2.627759 -0.926853 2.144896 255 254 248
3.388703 -0.521726 2.079770 255 249 241
3.687588 0.529768 2.075685 242 226 211
2.924655 0.758040 2.172579 220 207 191
3.039379 -0.514288 2.115968 255 254 250
2.698745 0.921525 2.203299 71 60 58
3.115259 -0.689877 2.100594 255 241 232
2.278514 -0.689119 2.196676 118 96 98
2.346387 -0.859343 2.184105 238 240 227
3.011633 -0.518703 2.130965 250 237 229
3.543979 -0.663207 2.053449 143 116 107
2.952444 -0.759102 2.117623 107 77 75
2.238786 -0.446996 2.204363 120 103 95
2.715636 -1.108038 2.129474 238 217 216
3.011035 -0.422126 2.130370 157 140 133
3.665237 1.254726 2.012196 32 36 37
3.526110 0.851277 2.099861 69 59 58
3.719207 0.129331 2.063130 94 84 82
2.557907 1.228689 2.129522 167 169 168
3.592394 1.250062 2.010953 205 226 221
3.199995 1.248378 2.058558 195 212 206
3.063968 0.034145 2.147414 255 253 247
2.617022 -1.095499 2.142811 255 248 242
3.807287 -0.337087 2.031371 118 106 108
2.100138 1.085921 2.242952 225 219 219
2.395414 -1.035507 2.166041 234 230 218
3.759584 -0.179147 2.040606 90 65 68
2.010545 -0.030546 2.239737 220 191 183
3.022579 -0.516235 2.124574 127 109 105
2.155245 0.921213 2.252486 74 79 85
3.510069 -0.054536 2.086033 104 100 97
2.058465 -0.529895 2.227970 81 77 66
3.242411 0.053756 2.118335 150 121 113
3.487832 -0.183103 2.084486 128 114 103
2.152174 0.846215 2.253239 211 204 188
3.445353 -0.755313 2.070678 255 251 239
2.947873 0.045448 2.166384 255 250 245
3.333018 0.050898 2.110909 252 252 242
2.399908 -0.916429 2.170550 244 226 216
3.427555 -0.372427 2.084067 255 252 243
2.209515 0.912106 2.242361 41 37 36
3.172615 -1.150657 2.076072 255 251 233
2.626875 0.154957 2.187284 255 246 241
3.140448 0.848996 2.153841 80 73 67
3.209177 -1.013602 2.074646 78 59 52
2.865202 -0.421602 2.146307 255 250 242
2.285700 0.686099 2.235380 130 112 108
2.268164 -0.025661 2.217400 75 53 65
3.407642 0.974620 2.096240 48 47 52
3.180458 -0.997235 2.084349 33 29 26
3.481101 0.204388 2.092363 255 243 234
2.350814 -1.033825 2.169911 233 210 202
2.383304 0.094227 2.211504 105 93 97
2.509688 -0.478874 2.180305 240 236 224
2.815738 0.377844 2.183271 251 239 227
3.124015 -1.164670 2.076522 251 225 208
3.606003 -0.181617 2.067777 103 73 71
2.830081 0.837711 2.185541 249 220 212
3.283527 -1.261250 2.072321 90 82 79
2.604052 0.087487 2.190727 46 35 39
2.615581 0.467072 2.196240 255 248 237
3.455890 -0.766749 2.062920 251 238 230
3.210824 -0.093277 2.120602 255 248 240
3.400509 1.326196 2.051111 37 37 35
3.332301 -0.683855 2.075645 233 223 213
2.805995 0.130928 2.178983 137 100 94
2.045791 -0.000013 2.238857 22 11 9
2.451869 0.188923 2.205161 204 187 179
2.693775 0.838286 2.198960 229 222 214
3.047532 -0.329029 2.131698 88 53 47
3.541664 -0.182261 2.076770 87 55 56
3.397032 -0.930710 2.064158 235 222 213
3.384563 -0.831916 2.066138 92 71 66
3.505594 -0.106422 2.087829 245 246 238
2.031782 -0.548146 2.227051 230 226 217
2.968059 -1.003129 2.101151 255 252 241
3.508804 0.862489 2.109553 224 220 211
2.372270 0.755503 2.224658 69 58 52
2.960177 -0.919211 2.102439 133 124 117
3.640476 -0.343681 2.054176 134 126 123
2.810286 -0.577470 2.142673 73 46 37
3.670801 1.252074 2.013202 227 242 235
3.077611 0.440194 2.151042 241 228 220
3.254392 1.413071 2.060538 32 35 42
3.728194 -0.170935 2.041831 91 66 59
2.170747 -0.874351 2.208323 85 80 76
3.144003 -1.015101 2.083252 252 239 230
2.791447 -0.146873 2.168063 92 67 60
2.964386 0.276253 2.165838 221 201 194
2.771349 -1.006839 2.120899 226 210 197
2.939289 0.033647 2.169449 49 39 37
3.836820 -0.763194 2.025854 255 252 248
3.189469 -0.676387 2.101954 48 43 40
2.500999 -0.951246 2.162066 242 245 236
2.292309 0.912619 2.239281 44 32 36
2.616013 1.149906 2.184811 227 233 221
3.136466 1.396171 2.077860 52 54 51
3.368327 -0.020208 2.101372 101 99 87
2.484305 -0.114969 2.198245 103 84 80
2.518510 -0.445436 2.181440 255 251 242
3.041260 -0.844617 2.108326 255 253 244
2.735213 -0.084973 2.171891 77 57 50
2.272490 0.746182 2.232052 248 235 226
2.364609 0.859200 2.228168 219 208 206
3.343725 0.868334 2.128204 255 251 236
3.866277 -0.435440 2.029947 228 221 211
3.263046 -0.998497 2.067879 250 239 235
2.340419 0.401111 2.217700 253 235 223
3.344638 0.865259 2.125632 138 126 114
3.611567 0.318511 2.077011 242 229 220
3.851455 -0.658905 2.025535 101 89 89
3.288214 0.705661 2.133103 255 242 233
3.514659 -0.674423 2.064223 61 56 52
2.433027 0.104582 2.200506 212 198 189
3.528074 -1.079239 2.044330 255 247 241
2.310967 1.094963 2.219829 58 58 56
2.506189 -1.191306 2.146608 251 243 240
2.473590 -0.040478 2.199168 69 35 36
3.503412 -0.060283 2.083051 255 254 235
2.266162 0.798589 2.239766 220 210 198
3.282928 0.917482 2.138704 218 221 210
3.487832 -0.183103 2.084486 128 114 103
3.378914 0.055391 2.101806 255 251 243
3.290570 -0.859616 2.076418 74 68 70
2.854260 -0.802734 2.122180 124 101 93
2.142540 0.404643 2.240074 79 63 66
2.727229 0.881862 2.194725 209 194 187
2.810582 0.206362 2.183579 255 251 242
3.551780 -0.599198 2.054195 241 219 205
2.707428 0.509013 2.196002 239 231 212
3.716895 -0.675270 2.036213 80 69 63
3.515018 0.281413 2.085647 233 231 219
2.622756 -0.184189 2.182229 115 96 92
2.538120 -0.852632 2.160444 255 244 232
3.650844 1.152240 2.067322 182 182 182
2.807607 1.412941 2.106056 50 57 63
2.325618 -1.103399 2.172516 236 219 211
3.338990 0.052422 2.111661 75 72 65
2.835235 0.543169 2.184294 70 58 60
3.511698 -0.215499 2.079341 119 112 106
3.726846 0.572684 2.065438 84 65 67
3.506990 -0.099237 2.085917 255 255 246
3.024285 0.777268 2.167485 252 237 230
3.056805 -0.359726 2.134826 47 43 40
2.511086 0.207131 2.200598 140 121 115
2.310869 -1.102874 2.171866 255 235 224
2.261536 0.145341 2.222736 221 212 195
2.833906 -0.290650 2.160399 233 216 206
2.687156 1.204797 2.117768 90 94 105
2.825724 -0.371381 2.153506 212 200 186
2.165901 -0.406360 2.216643 255 247 236
3.071939 0.856041 2.162074 229 228 223
3.679652 -1.234509 2.009382 255 254 241
2.164322 -0.058424 2.227928 80 77 72
3.652855 0.857702 2.090288 233 230 225
3.337108 -0.106602 2.103039 114 85 79
2.949403 -1.002768 2.105646 253 242 224
3.194646 0.361746 2.132578 241 224 216
3.183281 -0.755364 2.091147 253 255 241
3.251833 0.972054 2.115347 43 41 46
2.502290 0.674740 2.218409 86 79 73
2.817410 0.618801 2.184461 104 86 74
2.864069 -0.671292 2.132430 156 137 123
2.164434 -1.050643 2.195481 51 42 45
2.154625 0.585498 2.243265 210 207 200
3.416280 0.457124 2.106977 232 219 211
3.755033 0.932162 2.069390 30 29 27
2.500245 -0.626074 2.173619 250 249 231
2.260776 0.169333 2.224108 234 230 221
2.172903 -0.128336 2.221109 235 227 214
3.061767 0.558427 2.158983 216 176 166
2.505065 -1.114089 2.154544 193 189 180
1.991126 0.974964 2.258695 42 34 32
2.510147 -0.501573 2.178051 253 253 241
2.928964 0.035494 2.172907 71 63 52
2.956064 -0.482963 2.136247 255 250 243
3.045253 0.051131 2.151128 170 150 141
2.067235 -0.467358 2.227642 255 239 232
3.877634 0.958861 2.049078 76 81 85
3.492762 -0.186757 2.081843 255 255 243
3.088470 1.245549 2.072260 204 215 207
2.195742 -0.810907 2.197421 101 91 82
2.357114 0.442493 2.223220 255 251 244
2.842207 -0.984859 2.112513 80 56 46
2.015925 0.186355 2.249731 71 67 58
3.054381 0.701305 2.158496 106 68 57
3.745722 -0.888050 2.028555 83 68 65
3.657893 -0.364970 2.048902 130 109 106
3.506851 -0.668607 2.062685 255 250 247
2.801476 0.188920 2.183368 91 66 59
3.767043 -0.783173 2.030201 255 240 236
3.290570 -0.859616 2.076418 74 68 70
2.241381 -0.877455 2.193434 253 241 229
2.401350 -1.100068 2.163083 238 224 213
3.148721 -0.527874 2.110712 255 245 237
2.485879 0.452582 2.210447 255 244 242
3.833516 0.696165 2.061456 70 56 55
2.620914 -0.919869 2.148110 252 242 230
3.705153 1.174100 2.080514 76 75 73
2.718920 0.559758 2.191956 255 251 237
2.341692 0.404450 2.215010 255 241 228
2.958856 0.612873 2.173815 255 254 241
2.879546 -0.995713 2.111307 233 218 213
3.029688 1.390576 2.079669 199 204 198
2.850804 0.355334 2.178688 252 242 232
2.702402 0.047324 2.178436 125 100 93
3.744685 -0.411524 2.041465 96 87 90
3.767642 -1.152537 2.004104 247 242 236
2.832218 0.209875 2.178197 160 130 119
2.523410 0.833449 2.216856 239 228 222
3.185500 -0.025568 2.126416 244 236 217
3.626545 -0.986177 2.037628 255 251 239
2.645642 -0.594491 2.158789 224 199 194
2.546877 -0.294669 2.184159 246 228 214
3.174589 -0.987054 2.083413 255 252 245
2.254709 0.281136 2.228864 76 68 66
3.576658 1.250682 2.027936 58 58 58
2.573724 0.532068 2.202332 103 78 71
2.819752 -1.021902 2.120838 86 72 61
3.798159 0.061068 2.041539 116 101 96
3.607270 -0.929837 2.043126 204 200 188
3.852022 -0.180945 2.035634 255 253 248
3.737989 0.450372 2.070946 232 213 206
3.527475 -1.029525 2.042450 255 250 232
2.684399 0.677826 2.196240 248 227 222
2.178559 -0.565553 2.208656 244 226 222
2.650723 0.677496 2.202309 248 229 223
2.980854 -0.434686 2.131074 119 98 93
3.176116 -1.147526 2.075718 74 64 62
2.677145 -0.598685 2.155915 126 118 105
2.493122 0.177923 2.203004 50 38 38
2.855029 0.619088 2.177798 106 84 73
2.483833 0.281933 2.204988 255 250 231
3.499310 -1.237449 2.032089 255 234 222
3.521316 1.043627 2.078443 246 237 230
2.164434 -1.050643 2.195481 51 42 45
3.024562 1.319773 2.089923 21 27 27
3.627028 -0.813208 2.047320 255 245 238
2.895583 1.308617 2.082010 28 28 28
3.090100 -1.153106 2.082534 111 93 89
3.060540 -0.334505 2.125417 245 212 203
2.307488 1.039183 2.216713 205 200 196
3.272935 -0.918115 2.073260 255 251 242
3.490125 -0.439445 2.064690 251 236 229
3.885823 0.942075 2.067446 102 102 100
2.955089 0.622898 2.170070 221 203 193
3.726000 -0.170886 2.048443 101 82 76
2.645132 -0.593118 2.160333 98 78 69
3.732651 0.941969 2.079054 122 133 135
2.471096 -0.455286 2.181460 249 235 226
3.269033 0.363252 2.124400 231 202 198
3.333018 0.050898 2.110909 252 252 242
3.373847 -0.264811 2.096127 84 70 59
3.026717 -0.257374 2.137540 255 236 227
3.304570 0.638176 2.123619 102 77 72
2.872631 -0.990674 2.112628 255 248 236
3.742281 0.878467 2.075861 251 237 224
2.634126 0.771604 2.203794 109 91 89
3.062435 0.196079 2.152398 246 220 205
2.316545 0.429483 2.222869 236 216 207
3.263972 -0.836662 2.078842 255 253 244
2.750828 0.713645 2.195974 255 249 243
2.941829 -0.442474 2.147722 226 217 212
2.955920 0.662978 2.169496 255 245 230
3.611293 0.614275 2.082169 91 83 80
2.403102 -0.008787 2.201531 95 86 77
2.406712 1.121065 2.203707 232 218 215
2.436808 -1.032377 2.160525 250 232 222
