ply
            format ascii 1.0
            element vertex 51244
            property float x
            property float y
            property float z
            property uchar red
            property uchar green
            property uchar blue
            end_header
5.183164 -0.457965 1.809133 251 236 229
5.170765 0.667376 1.831699 255 251 241
4.102863 -0.655457 1.975411 117 105 105
4.715523 0.386073 1.928407 63 58 52
4.044095 -0.902793 1.968080 255 249 246
4.872181 1.168756 1.875939 47 51 54
4.653419 -0.411819 1.907907 253 234 227
3.703510 0.330610 2.073310 252 242 232
4.694074 0.140297 1.917213 255 239 231
4.567229 1.067250 1.931321 58 59 61
4.534942 0.380333 1.955087 253 230 224
5.169075 -0.097037 1.815778 255 255 250
4.733867 0.615371 1.920130 255 240 235
5.113740 0.131419 1.831443 255 241 234
4.501874 -0.489954 1.929087 255 252 250
4.350770 -0.817641 1.926253 255 250 243
5.123973 -0.176165 1.823426 255 250 243
5.181612 0.317639 1.831275 195 194 190
4.062744 0.333617 2.031216 74 59 64
4.140675 0.483549 2.020187 242 222 215
4.845505 0.626927 1.901693 251 250 248
4.412068 0.722480 1.986752 60 51 56
3.848356 0.687693 2.063720 97 88 91
4.872181 1.168756 1.875939 47 51 54
4.071767 0.236229 2.021716 113 98 93
5.309479 0.187409 1.797293 118 99 95
3.932967 -0.010967 2.034187 111 96 89
4.327439 -0.348024 1.966426 85 74 68
4.527882 0.072252 1.954714 114 99 96
4.170834 0.621588 2.019283 99 92 86
4.553589 -0.969116 1.889937 229 226 211
4.329979 0.448486 1.991538 225 206 202
4.800158 0.659867 1.908649 255 251 250
5.304107 -0.170606 1.800370 91 82 83
3.824688 0.465279 2.061625 136 118 116
4.115312 0.131851 2.016320 250 227 221
5.060814 -0.499922 1.828472 96 90 78
4.398262 -0.751492 1.924078 255 253 244
5.246214 0.416109 1.812161 103 74 66
4.547265 0.136863 1.952351 248 231 223
4.541800 0.381467 1.953666 223 196 189
3.626557 -0.790746 2.049155 78 66 66
4.946653 -0.566328 1.843829 106 96 94
3.848350 0.464476 2.064014 226 225 220
4.679666 1.243107 1.841455 103 114 116
4.882983 -0.503106 1.859484 237 220 210
4.692956 -0.527622 1.892168 128 114 105
4.521290 -0.135092 1.950776 106 98 96
3.718969 -0.133962 2.054029 255 247 240
5.058079 -0.647174 1.825198 255 254 249
5.129020 0.959271 1.838922 226 230 229
4.724671 0.830352 1.922251 255 248 240
4.197942 -0.107213 2.002316 59 54 50
5.265119 0.982801 1.812024 51 51 49
4.522609 0.217790 1.959514 255 253 243
5.138937 0.041923 1.825068 86 59 52
5.174783 0.817590 1.841919 245 222 216
4.914865 0.009969 1.871191 100 82 78
5.026274 0.635332 1.862444 252 255 251
4.340443 1.003345 1.969903 40 40 42
4.197601 0.484164 2.010204 245 225 216
4.665524 -0.341002 1.910414 86 73 67
5.233850 -0.474983 1.801260 255 252 246
5.060723 -0.333081 1.835634 95 87 85
4.199862 0.503584 2.012176 246 225 220
5.093926 0.077802 1.833683 255 251 250
4.609893 0.759206 1.944617 112 87 83
5.032809 0.319365 1.852168 139 121 119
4.950798 0.118763 1.866381 255 254 255
5.053721 0.877142 1.869248 75 76 71
4.517338 -0.424162 1.938655 218 218 218
4.339273 1.150710 1.969631 79 80 85
3.850218 -0.922766 2.004010 252 255 244
3.746441 -0.830760 2.029346 255 251 245
4.619231 0.256453 1.942420 83 74 77
4.092785 -0.260730 2.005977 255 247 242
4.620527 0.084848 1.935357 109 88 71
5.048531 0.875656 1.871606 209 208 204
4.527398 -0.906954 1.897065 92 88 79
4.566264 0.967908 1.931639 65 71 83
5.213870 -0.160327 1.808053 255 247 246
4.959815 0.038791 1.864946 255 253 243
4.849077 0.313563 1.900848 254 255 255
4.950428 -0.394117 1.848489 140 129 123
4.741791 -0.126060 1.907050 83 77 77
4.740043 0.800443 1.924644 255 254 248
5.150211 0.627218 1.834851 255 242 231
5.009549 -0.488341 1.839495 255 247 248
3.937520 0.049687 2.041367 39 25 25
3.727612 0.212321 2.080007 79 70 71
4.732940 -0.088618 1.905572 108 80 76
4.512528 0.504271 1.963748 236 245 244
4.860445 0.925329 1.898544 250 238 226
3.859045 0.806596 2.071673 85 70 73
4.832321 -0.502401 1.866678 127 117 108
4.185150 -0.543984 1.976253 122 111 115
5.010360 0.398323 1.858889 96 87 88
4.837803 0.653150 1.901862 255 243 240
4.948602 0.853111 1.879153 255 239 235
3.734802 -0.029270 2.062662 219 219 219
4.355133 -0.417088 1.959398 255 254 242
4.791507 0.077491 1.896760 254 253 248
5.278432 0.189113 1.802910 250 246 237
4.440062 0.393488 1.974557 152 112 112
3.780172 -0.751039 2.024652 85 80 76
5.019755 -0.405497 1.833355 255 250 245
4.351677 -0.816795 1.929508 146 131 126
5.095514 -0.482793 1.822937 129 119 118
4.265223 0.166558 1.996637 255 248 245
4.981643 -0.825703 1.838807 107 98 91
4.393791 -0.662833 1.935603 80 77 70
4.445953 1.178400 1.950500 53 53 55
4.062329 0.050126 2.017172 215 207 194
4.966840 -0.099351 1.860834 254 253 248
4.952270 1.121215 1.863879 78 79 83
5.158003 0.797705 1.841028 255 255 255
3.746944 -0.362048 2.043679 115 109 111
4.474142 0.076837 1.963208 255 248 234
4.343324 -0.821555 1.934737 255 251 242
5.200565 0.065781 1.816663 254 250 241
4.291194 -0.422963 1.977125 92 86 86
3.965534 -1.039599 1.976212 250 253 246
4.307770 -0.332510 1.948597 247 244 237
4.264474 1.171782 1.984633 84 85 87
4.495549 1.175400 1.944387 74 74 76
4.527686 0.096981 1.954677 98 79 75
5.099998 -0.098092 1.832491 255 253 244
4.347418 0.321000 1.992294 110 86 84
4.115064 -0.662137 1.983327 255 245 239
4.314067 -0.958451 1.928853 95 93 98
3.704484 0.287478 2.072599 92 82 80
4.188331 0.310109 2.009506 130 106 104
5.183225 -0.108529 1.814007 106 94 98
5.059627 0.253841 1.847468 255 250 241
3.692168 -0.343458 2.051382 105 102 93
4.644187 -0.265369 1.919970 253 236 228
3.857122 -0.294434 2.030132 255 253 247
4.595940 1.175828 1.920269 230 227 222
4.927515 0.539971 1.879408 255 245 240
4.358476 1.177080 1.964824 43 42 38
4.308270 -0.765611 1.942040 104 99 103
4.835178 -0.100399 1.885728 255 251 237
5.016145 0.087136 1.850826 255 250 245
4.192472 -0.845864 1.952374 255 247 246
4.953236 0.516061 1.876239 255 252 240
4.879534 0.502392 1.887694 124 103 98
5.270315 0.721240 1.823881 236 241 235
4.993641 -0.820842 1.835475 254 253 248
4.785320 -0.419300 1.880118 81 74 68
4.518385 -0.208447 1.942401 149 131 129
4.987850 -0.806212 1.836653 59 58 56
4.485369 -0.306913 1.941287 138 121 113
3.619871 0.788594 2.111035 250 240 231
4.568188 0.741465 1.953899 255 239 235
3.734927 0.384397 2.075260 255 254 246
4.652987 0.567109 1.935722 103 85 83
5.150761 -0.083066 1.819654 255 252 246
4.724472 0.578610 1.922577 255 240 235
4.565554 1.008366 1.930077 67 72 78
5.094422 0.397257 1.846329 255 254 251
5.134877 0.632086 1.842420 104 93 97
4.423140 -1.051733 1.902017 239 225 224
3.963663 -0.876880 1.986640 93 81 91
4.734076 0.636670 1.923556 232 223 214
4.409137 0.092500 1.982042 114 115 117
5.214779 0.639481 1.827534 255 255 251
3.979399 -0.264255 2.025536 241 238 233
3.914905 0.535656 2.051825 225 202 196
4.966983 0.111301 1.861786 115 96 92
4.196953 0.709672 2.017160 150 135 130
5.010608 0.561334 1.861326 161 141 140
4.491239 1.157539 1.944446 81 82 84
4.214862 0.293696 2.007656 221 211 209
5.280525 0.403496 1.812437 106 97 98
4.210325 -0.208806 1.990999 120 102 98
4.739544 0.808013 1.924337 242 233 228
4.390501 -0.655283 1.934522 255 250 243
4.966561 -0.105414 1.861133 255 254 252
4.345572 0.461443 1.988539 227 212 205
4.280367 -0.274625 1.979727 253 228 221
4.825927 -0.565911 1.862911 147 132 127
5.174783 0.817590 1.841919 245 222 216
4.629800 -0.150883 1.925699 241 222 215
5.016562 0.225102 1.855799 239 210 206
4.313792 -0.987349 1.922454 104 100 91
5.183252 -0.013295 1.815974 231 214 206
5.118905 0.264401 1.831977 82 61 56
4.307102 -0.807216 1.939449 96 94 95
4.693290 0.301745 1.924762 230 209 204
4.701752 0.246016 1.920728 111 87 83
4.092469 -0.277520 2.002329 160 130 128
4.210392 0.482960 2.008636 118 99 95
5.136929 0.946031 1.847837 249 231 227
4.186561 0.992753 1.996105 41 36 40
4.098165 0.266331 2.020545 255 254 242
4.375608 1.172541 1.959679 249 248 246
5.167737 0.025459 1.819431 128 103 99
4.518156 -0.079022 1.947125 108 93 90
5.179378 0.072636 1.824358 223 225 224
5.264198 0.564609 1.815674 113 94 96
4.156228 -0.317427 1.995799 124 105 99
5.111878 -0.175139 1.825052 255 247 241
3.829295 0.180035 2.054744 73 64 67
3.788521 0.207842 2.052714 233 210 204
4.663248 0.195958 1.928207 255 250 243
4.154170 0.132662 2.015381 248 229 222
4.781015 1.023509 1.886231 242 229 223
4.075337 0.629468 2.033174 246 241 237
4.185150 -0.543984 1.976253 122 111 115
5.113720 0.134120 1.832083 129 106 100
4.815028 -0.245118 1.885314 143 132 128
3.883998 0.634672 2.052495 157 132 125
4.412068 0.722480 1.986752 60 51 56
4.618362 0.629341 1.949553 239 239 237
5.158003 0.797705 1.841028 255 255 255
5.292587 0.625517 1.815230 100 89 95
4.083465 -0.954216 1.964464 104 103 111
4.299877 -1.081700 1.922378 62 56 60
5.039752 0.306585 1.850832 250 237 231
5.077130 -0.800479 1.818779 135 124 118
4.324424 0.417613 1.994438 255 243 238
4.463267 0.073873 1.965494 107 94 86
4.724110 -0.044283 1.906918 113 82 77
4.156228 -0.317427 1.995799 124 105 99
4.544730 0.076405 1.950025 142 129 120
3.608016 0.179522 2.081411 115 103 105
4.699184 -0.415299 1.908645 255 249 242
4.254416 0.377796 2.002070 255 253 244
4.627308 0.458717 1.942188 224 207 197
4.038327 -0.820515 1.974538 255 254 235
4.106668 0.264026 2.020331 255 245 243
4.963142 -0.130981 1.861138 97 96 94
4.405026 -0.021957 1.980891 82 77 74
3.829295 0.180035 2.054744 73 64 67
4.697121 0.009571 1.913611 136 118 106
4.569604 -0.057539 1.939676 255 251 244
4.574755 -0.165720 1.936172 142 117 112
4.186208 1.115876 2.002338 54 53 61
4.294517 -1.137458 1.904044 58 51 45
4.152386 -0.508632 1.978287 252 239 233
4.430378 -0.656192 1.931527 255 252 243
4.690837 -0.263636 1.907998 255 249 242
4.555797 0.016494 1.946841 119 98 93
4.769848 -0.735401 1.875389 255 254 247
5.190169 -0.324071 1.813940 250 242 239
5.230286 -0.618518 1.805787 92 76 76
4.139279 0.235783 2.014370 132 102 91
5.132313 0.786483 1.844066 236 218 218
3.861269 -0.874515 2.001254 138 128 126
4.742568 -0.912274 1.864794 238 221 211
5.121950 -0.060860 1.825600 110 82 79
4.980832 -0.745378 1.836218 238 243 239
5.073341 0.020760 1.840102 128 108 107
4.699030 -0.486044 1.885429 250 243 233
4.086730 0.838351 2.035004 64 58 62
4.514949 0.943485 1.963451 221 210 206
4.256072 -0.655964 1.955293 255 255 244
4.966539 0.829159 1.876204 217 191 174
4.351677 -0.816795 1.929508 146 131 126
5.000548 -0.640389 1.834473 115 101 98
3.739937 -0.725785 2.031466 93 87 89
4.269798 -0.864717 1.935132 114 95 88
5.261223 -0.483377 1.799286 84 80 77
3.843338 -0.986076 1.996240 245 231 220
3.856717 -0.663233 2.016251 255 251 241
4.442348 0.219190 1.975574 241 216 209
4.737760 0.945463 1.919277 81 76 72
4.217862 0.169019 2.006799 255 245 241
4.071634 0.375393 2.027508 255 251 244
5.231751 -0.476932 1.801147 106 97 90
4.174881 0.291854 2.014083 192 181 175
4.851458 -0.910487 1.847332 230 230 222
5.099998 -0.098092 1.832491 255 253 244
4.851249 0.189048 1.887416 255 248 243
5.118602 -0.071666 1.827296 255 239 235
4.726612 1.180646 1.901249 77 74 81
4.313535 -0.175398 1.972077 246 235 231
4.651562 1.256420 1.853664 36 36 36
4.602545 -0.897130 1.886403 255 253 245
4.320124 -0.650831 1.945325 113 100 91
3.927944 -0.886047 1.988252 92 74 70
3.991960 -1.066810 1.969728 255 243 231
4.308270 -0.765611 1.942040 104 99 103
5.268168 0.470643 1.809442 243 214 206
4.234614 -0.319474 1.982404 111 92 86
4.643656 1.129154 1.915659 57 58 60
4.376805 0.295750 1.987036 237 228 221
5.141065 0.148933 1.819619 41 29 29
5.036667 -0.318461 1.834689 255 254 248
4.965444 -0.450240 1.846097 255 253 252
3.939891 -0.339598 2.019403 154 139 132
4.596747 0.945830 1.948656 68 63 60
3.745168 -0.842849 2.036980 86 85 80
4.995386 -0.465892 1.838804 107 96 90
4.413256 0.896934 1.985095 65 59 61
4.541828 -0.077329 1.943798 255 247 240
4.580430 -0.977397 1.883987 255 248 241
4.404333 0.862824 1.985855 43 27 27
3.728213 0.078127 2.064662 248 247 242
4.859595 -0.043485 1.881238 223 219 220
3.950496 0.577441 2.047725 245 237 218
3.846013 -0.107647 2.047863 228 227 223
4.700598 0.464956 1.926504 218 197 196
3.955012 0.600001 2.047601 85 76 81
5.042218 -0.498979 1.827056 255 254 243
4.159965 -0.248190 1.996662 245 240 234
5.138470 0.955180 1.858210 75 73 76
4.967913 0.624352 1.865557 255 246 237
4.760787 -0.341422 1.889317 249 240 231
5.242767 -0.418571 1.802584 255 248 242
4.636038 0.899381 1.943757 82 76 80
5.078821 -0.428240 1.824697 101 88 80
5.083984 -0.544452 1.822811 251 246 243
3.959762 0.735486 2.049436 239 230 225
4.777080 0.463117 1.909237 253 234 227
4.435772 -0.654735 1.927379 255 252 242
4.736077 0.301275 1.914272 235 204 199
4.682372 -0.603076 1.888824 255 251 248
5.104577 -0.083670 1.829795 236 235 230
3.718425 -0.744313 2.026638 238 225 219
4.461801 0.506045 1.969743 255 242 238
4.791790 -0.421351 1.879264 248 238 228
5.107999 -0.094935 1.828411 232 217 212
5.031683 0.973959 1.846595 48 47 55
4.302405 -0.245976 1.976313 111 100 94
5.078648 0.896574 1.857939 255 248 237
4.116062 0.260332 2.018511 105 100 96
3.963706 -0.857568 1.987283 62 47 68
4.253565 -0.175109 1.988135 170 150 149
3.609136 -0.243345 2.068215 137 122 115
4.885419 0.664132 1.889018 255 233 229
5.074831 -0.480351 1.824132 251 234 226
5.210817 0.547534 1.820275 208 188 181
3.766381 0.488531 2.066126 240 233 227
3.632082 -0.155427 2.068552 134 128 130
3.688550 -0.343697 2.055118 123 116 108
4.763018 -0.926721 1.864721 81 76 83
4.207915 0.487096 2.013534 71 56 51
5.206781 0.092532 1.810044 116 95 90
4.842160 0.268031 1.897174 58 53 57
4.458174 -0.075459 1.959947 255 247 240
4.171969 -0.018231 2.001902 164 153 149
3.890893 0.315302 2.046435 132 108 104
4.536801 -0.968829 1.898942 82 87 83
4.702072 0.890248 1.925967 66 52 52
3.863039 0.838563 2.068702 237 217 210
4.285582 0.461179 2.002213 203 192 190
5.005316 -0.499068 1.833037 255 252 236
4.299197 -0.113707 1.990743 95 86 87
4.625063 -0.575341 1.909460 255 255 248
4.670727 -0.426005 1.902645 255 250 245
5.031287 -0.317026 1.834499 99 96 91
5.185307 0.978327 1.822280 60 59 64
4.628346 1.177451 1.915335 63 62 58
4.296968 0.527896 2.002097 88 72 75
4.414742 -0.728982 1.930856 37 34 29
4.726209 -0.042653 1.907143 125 94 89
4.952108 1.135854 1.864599 59 58 63
4.616570 -1.046313 1.873862 94 91 110
4.684918 -0.583249 1.889466 255 255 248
5.207774 -0.578903 1.814485 77 72 69
3.825936 0.509485 2.057974 94 74 67
4.285401 0.242700 1.996244 255 244 241
4.823902 0.594406 1.902379 255 250 246
4.196310 0.965247 1.989011 99 95 94
4.742515 0.529577 1.919923 255 254 245
4.642561 -1.012579 1.876177 63 55 53
4.033858 -1.067133 1.965230 255 249 228
4.288192 -0.275358 1.977766 130 106 96
4.734896 0.613785 1.919286 146 127 121
3.953230 0.702861 2.056735 71 59 61
5.107635 0.306297 1.837690 216 198 194
4.548256 0.730198 1.956683 255 243 242
4.492966 0.100409 1.962725 255 251 251
4.360164 -0.201918 1.968015 255 250 242
4.181564 0.584362 2.017017 218 199 193
3.962029 0.697050 2.047278 238 230 219
4.702435 -0.518521 1.890548 117 102 95
4.967238 -0.581443 1.843736 212 212 212
3.947817 0.270054 2.043535 231 227 215
4.106668 0.264026 2.020331 255 245 243
4.959368 0.053434 1.866454 255 254 248
4.299197 -0.113707 1.990743 95 86 87
4.442507 1.250282 1.885544 221 209 193
3.624480 0.665747 2.101398 86 74 78
4.057205 -0.578132 1.985772 255 250 247
4.742733 -0.584752 1.885581 234 221 215
4.674895 0.661913 1.931391 252 241 239
4.570477 -0.185411 1.934364 253 249 246
5.265147 -0.421782 1.799804 255 249 239
4.540542 0.053605 1.952848 244 225 219
4.693803 -0.108157 1.127953 59 50 45
4.886842 0.663434 1.891329 103 79 75
4.092262 -0.651228 1.976180 250 237 229
4.479101 0.536222 1.965880 132 110 99
4.162347 -0.975211 1.946053 255 251 247
3.838757 0.341347 2.058733 89 72 80
4.305562 0.550478 1.994807 254 255 251
4.430259 -1.138754 1.895460 255 254 245
4.156956 -0.341664 1.995255 255 255 241
5.184783 -0.451409 1.809491 87 81 83
4.876270 -0.130740 1.875663 255 251 249
5.273986 0.805914 1.826927 238 224 215
4.313154 -0.016843 1.987995 252 247 243
3.846000 -0.107684 2.048004 228 227 223
3.860491 0.830812 2.068786 90 78 80
5.193800 -0.610239 1.808150 255 243 236
4.138426 0.095599 2.010822 140 129 125
4.511118 0.944323 1.959883 79 68 72
4.864769 -0.881665 1.849368 22 15 22
3.626716 -0.779907 2.049170 85 73 77
3.870300 0.860200 2.062420 77 68 71
4.607959 -0.450642 1.910330 253 238 235
5.176934 0.019760 1.818740 255 243 236
4.734272 -0.509947 1.882698 119 94 90
4.413646 -0.687919 1.933279 94 89 93
5.015738 0.627603 1.864176 255 253 245
4.600600 0.543339 1.949406 226 202 192
3.833766 0.190509 2.052175 254 240 239
4.947156 1.200017 1.846475 118 122 131
5.072435 0.557038 1.849355 249 245 242
4.707454 -0.535749 1.888917 113 96 89
4.075655 -0.008039 2.018755 104 102 105
5.242989 0.075860 1.812247 254 255 251
4.638197 -0.351520 1.914290 255 249 241
4.200802 0.501605 2.011031 130 106 102
5.015967 0.146918 1.851400 255 240 233
5.096904 0.128993 1.835611 126 112 109
4.735339 0.493700 1.922630 255 252 246
5.264395 -0.241775 1.801781 134 108 107
4.742620 -0.422833 1.891808 255 254 250
5.201946 -0.094759 1.809111 255 243 234
4.448626 0.317303 1.974368 126 105 102
5.146492 0.619948 1.832563 139 106 97
4.125041 -0.110938 2.006336 255 241 234
4.490389 1.245424 1.883845 55 55 57
4.458252 -0.001135 1.963517 152 138 135
4.928187 1.175148 1.866162 38 38 36
4.068879 -0.127476 2.017220 253 250 243
4.652987 0.567109 1.935722 103 85 83
4.264756 0.973110 1.985131 54 53 59
4.098165 0.266331 2.020545 255 254 242
4.525417 0.136974 1.955219 246 228 224
4.516571 -0.979836 1.896768 255 253 243
4.720049 0.403294 1.918510 255 243 237
3.848127 0.661141 2.062693 79 64 71
4.491347 -0.473188 1.931073 106 78 75
5.135960 -0.277580 1.817972 126 123 108
4.167452 0.778931 2.019157 246 221 216
4.654865 0.299476 1.929604 148 140 137
4.013609 0.295030 2.036140 95 88 78
5.080133 -0.393895 1.825487 97 97 97
5.075459 -0.169930 1.841712 240 240 240
5.276922 0.388399 1.808926 255 255 246
5.103255 -0.660837 1.819555 253 249 240
4.471314 -0.257444 1.949908 255 251 239
4.308344 1.180940 1.985134 115 115 113
3.747594 -0.404254 2.040094 107 92 99
4.266446 0.567968 2.001796 247 234 226
5.045661 -0.568380 1.825949 255 253 248
4.492280 0.089611 1.960284 120 102 98
5.206407 0.870924 1.840457 251 224 217
4.837022 -0.181140 1.884685 225 215 205
4.495687 0.222691 1.973610 101 93 90
4.105741 0.093983 2.013495 120 105 98
3.639307 -0.668923 2.053102 235 220 213
4.265543 -0.189801 1.983469 255 251 239
4.417141 -0.849026 1.915024 255 250 248
4.215413 -0.791685 1.949229 119 106 100
5.127455 -0.479176 1.815965 124 110 109
4.286168 0.175824 2.000805 57 42 45
4.296717 -0.451039 1.965175 255 253 248
4.109594 1.044173 2.010616 56 55 61
3.926457 -0.886493 1.987363 96 76 75
4.878092 0.947538 1.896732 64 55 56
4.600376 -0.973302 1.875910 255 242 238
4.269798 -0.864717 1.935132 114 95 88
4.636939 1.107075 1.914198 226 226 226
4.720603 0.382480 1.919211 255 251 245
4.293933 -0.672803 1.948616 255 240 230
4.138409 -0.657905 1.971604 255 255 248
3.964770 0.548315 2.053750 252 251 249
4.643617 1.023572 1.915722 60 59 65
5.031353 0.864719 1.862513 220 205 198
4.800848 1.025132 1.881900 226 222 219
4.838007 0.140834 1.893190 255 250 239
4.672081 -0.343092 1.907969 246 243 238
4.768046 -0.545610 1.876344 255 249 244
4.195348 -0.577636 1.969403 255 251 246
4.167753 0.245434 2.013472 255 240 230
4.566247 1.058963 1.929935 62 63 67
5.163688 0.873941 1.848334 73 58 61
4.652149 0.716710 1.946325 255 254 244
4.632020 -0.358176 1.917687 87 83 82
4.806141 0.634020 1.906038 255 248 251
3.621542 0.626778 2.100402 245 244 240
5.090915 -0.095364 1.830902 212 193 187
3.738747 0.882248 2.095756 72 67 74
5.029738 0.225877 1.854806 242 222 215
4.422423 -0.257782 1.957942 255 250 241
4.963142 -0.130981 1.861138 97 96 94
3.735516 -0.160354 2.050574 233 226 216
4.629780 -0.385452 1.915798 243 230 222
4.234614 -0.319474 1.982404 111 92 86
5.195885 0.633959 1.832061 105 96 101
4.917505 0.013735 1.871388 255 244 241
5.196257 0.277564 1.815542 255 246 240
3.980221 -0.982804 1.972031 247 234 226
5.065957 -0.437544 1.827989 255 247 243
4.267877 -0.190617 1.982817 80 61 54
4.514698 0.357312 1.959704 248 236 224
4.020135 -0.901721 1.968600 255 243 234
4.702943 0.084165 1.913934 133 110 104
4.711857 -0.584546 1.884113 119 114 108
4.594672 1.108500 1.922215 207 198 199
5.001086 -0.534248 1.833765 255 249 243
3.850049 -0.605965 2.018017 92 80 82
4.960993 0.318666 1.873504 243 243 241
3.857266 -0.308053 2.029679 253 242 236
4.127418 0.942868 2.031507 93 77 80
4.968714 0.145034 1.867333 255 227 219
3.968640 -0.183377 2.026784 253 250 245
4.132385 0.212593 2.018186 255 246 241
5.266724 0.701351 1.817556 108 78 68
4.911971 0.784296 1.886527 236 207 201
4.082064 -0.659420 1.982859 247 232 229
5.023383 -0.291440 1.838214 255 250 244
4.238993 1.175770 1.987756 51 47 44
4.027065 0.327266 2.032991 247 222 217
4.831449 -0.561677 1.863105 109 94 87
4.499860 0.715397 1.969229 139 108 105
4.609204 0.590058 1.944156 96 73 65
5.310283 -0.076852 1.793760 124 110 109
5.170576 0.793159 1.844326 112 97 100
4.248463 0.570004 2.004924 245 225 218
4.981071 -0.567973 1.838681 254 249 246
4.007719 -0.741515 1.990082 255 254 252
3.846505 -0.135444 2.042650 253 253 243
3.662570 0.577761 2.082383 237 213 209
4.392736 0.104237 1.979606 255 244 238
4.192169 -1.048743 1.940420 206 212 208
4.637495 -0.564571 1.905425 111 111 111
4.568004 -0.165483 1.937548 137 114 108
3.886929 -0.113548 2.040604 231 231 223
4.704033 -0.022071 1.911545 197 180 173
4.537307 0.701879 1.956729 254 231 225
4.181442 0.895220 2.018214 141 116 112
4.189030 -0.896756 1.948742 247 253 251
4.028066 0.938033 2.034556 85 76 77
4.760961 -0.803782 1.869112 72 67 73
4.395180 -0.310139 1.956355 117 100 93
4.451625 0.743681 1.974891 255 241 235
4.660811 0.124642 1.927257 119 90 82
5.295674 0.150468 1.806810 96 85 81
4.538593 -0.965054 1.893887 203 208 204
4.729500 -0.099885 1.906627 189 180 173
5.293168 0.311994 1.810057 79 69 68
4.651862 0.300518 1.931838 117 109 106
4.766904 0.222614 1.907334 238 217 214
4.255033 -0.635821 1.957168 253 235 223
5.140590 0.267732 1.829763 255 249 242
4.138815 -0.109499 2.004898 254 245 238
4.173201 -0.353091 1.986617 253 229 219
5.233076 -0.472869 1.800725 121 116 110
4.185248 1.148909 2.001571 46 45 51
4.682372 -0.603076 1.888824 255 251 248
5.171263 -0.077409 1.816991 255 254 248
4.695229 -0.005707 1.914021 160 147 138
4.634262 -0.843465 1.886058 221 228 221
4.954780 1.025264 1.855024 203 201 202
4.412494 1.169556 1.947598 105 105 105
5.013562 0.798769 1.865245 143 119 117
5.072059 -0.780432 1.821256 255 249 242
4.789508 1.078098 1.887315 250 249 247
4.902991 0.661623 1.883388 252 227 222
3.993703 -0.754847 1.986934 255 253 242
4.745709 -0.262807 1.898095 242 239 234
4.966525 0.821594 1.876096 224 205 191
5.217875 -0.395357 1.802759 121 103 101
4.238802 0.377757 2.005874 223 215 212
4.188877 -1.147236 1.938960 239 236 227
4.199369 0.092204 2.002335 253 233 226
4.448626 0.317303 1.974368 126 105 102
4.989689 -0.650065 1.838838 255 251 246
4.572950 0.734494 1.952971 255 240 236
4.541712 0.108744 1.951763 255 251 246
4.222826 0.459918 2.010255 222 208 205
5.184304 0.704168 1.835994 110 95 98
4.207788 -0.208839 1.992940 107 92 85
4.272293 0.621601 2.000770 236 207 203
3.957861 0.550600 2.048648 231 225 225
5.290743 0.227141 1.798011 248 219 215
4.179280 0.572902 2.020054 73 62 68
4.605256 0.703726 1.945161 241 212 208
4.968756 -0.163387 1.861269 255 253 254
4.295681 0.534045 2.002670 100 95 99
3.956001 0.274755 2.040938 243 224 218
5.136014 0.626573 1.836698 255 235 223
4.730921 -0.086997 1.907262 255 242 235
4.790200 1.025194 1.886719 254 249 246
4.761788 1.186150 1.900660 57 57 59
4.325808 -0.555111 1.951494 126 113 104
3.974076 0.937051 2.048928 248 224 220
4.231197 -0.323751 1.982035 104 80 76
5.071048 -0.497557 1.839519 84 80 77
4.196810 0.708290 2.017844 255 254 245
5.032215 0.480044 1.854845 131 105 104
4.663097 0.786619 1.941172 246 228 224
4.068409 -0.761242 1.977889 236 215 210
5.178960 0.673861 1.832613 93 79 76
3.607752 0.151367 2.081558 107 91 101
4.617239 0.098002 1.936743 106 88 76
3.679151 -0.321343 2.052607 127 120 110
4.512490 -0.088586 1.952914 110 97 91
5.244350 -0.230642 1.803940 108 90 86
5.120950 -0.255368 1.820661 80 68 54
4.642831 -0.147298 1.921926 255 239 232
4.035940 -0.194495 2.016606 255 237 230
4.419233 -1.036180 1.907618 51 49 52
3.953655 0.966988 2.033792 29 27 28
4.284191 0.241024 1.994087 132 113 109
4.965673 -0.267708 1.850561 255 237 233
4.622769 0.759903 1.944796 117 83 81
5.068790 0.455753 1.849850 90 78 80
5.078918 0.471616 1.848225 50 41 42
4.292199 -0.272712 1.980058 106 102 99
4.309055 -0.939586 1.931742 68 68 70
4.521674 -0.484875 1.926994 231 227 228
4.507846 -0.125615 1.949028 137 114 106
5.175310 0.344941 1.826358 255 252 249
4.637942 -0.546962 1.905464 252 246 246
4.305284 0.811462 2.001875 75 64 68
4.970380 0.159704 1.856673 201 189 177
5.283116 0.695543 1.818633 127 100 93
5.223565 -0.472350 1.802884 126 108 106
4.300975 -0.600577 1.956182 80 84 87
5.000025 -0.637725 1.833443 255 252 244
5.044896 -0.477405 1.829448 255 252 251
4.194714 0.234241 2.007138 255 245 236
4.950057 0.640865 1.878036 147 97 96
5.256547 0.308360 1.807810 235 215 208
5.214087 0.159990 1.810435 255 251 246
4.735520 0.501009 1.924284 255 249 253
4.210325 -0.208806 1.990999 120 102 98
4.741789 0.213838 1.913990 254 253 248
4.190565 -0.677885 1.967519 62 49 56
4.299102 -1.113703 1.921064 44 44 46
5.085962 0.002815 1.835996 108 90 86
5.070947 0.894208 1.858889 255 255 236
3.967509 0.141156 2.036262 117 112 106
4.968756 -0.163387 1.861269 255 253 254
4.321291 -0.189274 1.970586 255 252 243
4.505342 -0.373766 1.934982 142 124 120
3.882407 0.863552 2.066056 70 66 65
4.734474 -0.425687 1.893264 255 253 244
4.769224 -0.905239 1.862554 94 90 79
4.730890 0.785398 1.921391 239 215 211
3.861981 -0.922061 1.998620 251 252 234
4.470088 0.353142 1.969665 255 245 242
4.506939 -0.161462 1.946789 122 102 95
4.549622 0.747933 1.958294 255 248 241
4.336223 1.097804 1.974837 32 30 33
3.616822 0.463801 2.088901 245 244 239
4.554787 0.431450 1.951903 94 75 71
5.143656 0.066780 1.825367 229 215 206
4.569841 -0.652886 1.907391 248 231 224
4.856606 0.109633 1.888682 255 252 246
4.468819 0.622101 1.970443 245 235 233
4.161205 0.458524 2.017873 241 240 236
4.186950 0.475775 2.011539 255 246 239
4.609204 0.590058 1.944156 96 73 65
4.539929 -0.077770 1.945168 255 253 246
4.924271 -0.338081 1.856284 249 245 234
4.388602 -0.992259 1.911584 255 255 247
4.116066 -0.490759 1.398752 135 128 122
5.111608 0.306171 1.836653 252 232 225
4.521923 -0.140479 1.950328 99 89 88
4.313010 0.541543 1.993780 236 221 216
4.874019 -0.551690 1.857066 109 86 78
4.374745 -0.815962 1.922575 140 131 126
4.584485 -0.584901 1.907640 255 250 240
4.833633 -0.566028 1.862645 123 103 96
3.971136 -0.432804 2.012229 234 225 216
4.499918 -0.080265 1.954513 134 123 119
4.882872 0.184239 1.880697 255 254 248
4.553637 0.111285 1.950239 120 100 91
4.010477 0.211228 2.031537 255 254 246
4.850010 1.234474 1.815398 250 255 252
5.242584 -0.238181 1.799397 140 123 116
4.405687 -0.624951 1.932960 157 148 141
4.223122 0.552392 2.008018 149 136 127
4.303593 0.841780 2.005020 75 70 74
3.609962 0.361590 2.090155 246 242 241
4.182623 -0.828353 1.957519 235 237 234
4.171988 0.780926 2.015162 88 74 74
4.966840 -0.099351 1.860834 254 253 248
4.561970 0.784907 1.956366 218 199 195
5.076496 -0.429306 1.827018 255 247 240
5.151951 0.629316 1.830025 133 113 115
5.038637 0.728752 1.858141 255 230 223
5.310551 0.144954 1.794574 231 206 201
5.078520 0.021065 1.837950 117 93 91
5.000548 -0.640389 1.834473 115 101 98
5.228320 -0.074469 1.805265 113 98 93
4.749558 1.251413 1.827484 54 53 51
4.638279 1.095668 1.915447 240 233 227
4.963307 0.095983 1.862887 238 229 224
5.299081 0.634538 1.819799 121 112 113
5.304176 0.892781 1.830214 76 57 63
4.161205 0.458524 2.017873 241 240 236
3.849831 0.639039 2.062152 104 98 100
5.117464 0.714260 1.844786 252 253 248
4.151484 0.509640 2.021050 127 108 102
4.508630 -0.254083 1.945471 176 145 140
4.258103 -1.074092 1.927493 255 253 241
4.189415 -0.709519 1.963558 57 47 58
4.070064 -0.247753 2.009105 104 75 71
4.330427 0.432327 1.992574 116 92 90
5.165264 0.392947 1.831026 83 79 76
4.557565 -0.481338 1.918248 140 127 119
4.522192 -1.117331 1.885322 251 241 231
5.069369 -0.420200 1.828198 251 233 229
3.745867 -0.848873 2.021643 231 217 206
3.914197 0.728640 2.052904 126 108 104
5.123655 0.113349 1.828236 114 93 88
4.693239 0.867449 1.938687 244 237 229
4.193949 0.141687 2.012786 135 135 133
5.138266 0.957994 1.850250 242 255 255
4.699322 -0.482301 1.892594 255 244 237
4.217898 -0.029083 1.998970 255 250 243
4.490776 -0.471168 1.931435 240 219 214
4.959875 -0.142603 1.862135 254 249 245
4.083614 0.942651 2.035516 66 57 62
5.210721 -0.137909 1.810194 104 84 75
4.188680 -0.098680 2.006254 106 107 101
4.872181 1.168756 1.875939 47 51 54
3.710087 -0.171421 2.055130 110 93 86
4.924413 -0.203714 1.863868 129 116 110
4.444398 -0.037754 1.963829 252 233 226
5.083929 -0.481105 1.823260 97 82 77
4.622894 -0.410898 1.914402 155 144 140
4.965071 -0.501993 1.845954 250 233 217
4.561084 0.987681 1.931346 247 247 249
4.263000 0.636049 2.001932 104 83 80
4.781836 -0.215465 1.893417 156 149 141
4.368613 -0.188921 1.969486 255 247 240
4.508350 -0.583295 1.932004 84 78 66
4.140660 0.067203 2.010708 117 115 116
4.799509 1.101960 1.888495 214 215 207
5.276268 -0.313188 1.795872 254 245 238
5.110171 -0.082223 1.833875 113 102 98
4.868023 0.006325 1.877578 146 131 124
4.791399 0.254067 1.900837 139 112 105
5.136156 -0.255582 1.822706 92 83 76
4.880293 -0.641001 1.848990 115 97 93
4.176818 -0.353497 1.986229 247 223 213
4.442799 0.487818 1.976131 255 251 245
4.717637 0.174928 1.914360 255 246 236
4.536781 -0.258544 1.946763 255 253 252
4.989841 0.480169 1.865655 114 99 96
4.401654 -1.164057 1.902885 240 230 218
5.099204 0.962999 1.858711 83 97 100
5.310283 -0.076852 1.793760 124 110 109
5.172466 0.813931 1.839540 102 78 74
4.288958 0.172544 1.995256 255 231 223
4.733589 -0.477200 1.889971 255 249 240
4.711357 -0.581547 1.886306 92 79 70
4.290484 0.356678 1.997536 246 216 208
4.027081 -1.065478 1.963661 255 243 227
5.011082 0.493299 1.861549 132 103 97
3.618719 -0.660540 2.056154 77 71 75
5.309499 -0.451392 1.794650 107 92 87
4.440417 -0.025479 1.966093 246 228 226
5.185887 0.807213 1.840904 71 57 70
5.131121 0.750134 1.842207 255 244 237
4.696211 0.065655 1.925084 80 80 78
4.531179 -0.977936 1.894613 254 255 250
4.255677 0.872026 2.015410 118 121 114
4.697121 0.009571 1.913611 136 118 106
4.023093 -0.565177 1.987087 117 98 92
3.623217 -0.505359 2.060034 255 250 248
4.783841 0.737691 1.909967 100 81 75
5.177643 0.799978 1.838048 246 242 239
5.191201 0.422564 1.818466 255 237 239
4.623126 0.415994 1.947079 59 46 53
4.948654 0.973045 1.858950 26 24 27
5.208001 0.876487 1.847098 67 48 50
5.071537 -0.782227 1.820761 96 85 83
4.970528 0.053273 1.861447 148 115 110
5.189982 0.424366 1.820096 116 87 89
5.277242 0.586897 1.811937 97 78 72
4.553637 0.111285 1.950239 120 100 91
3.851653 0.672723 2.061832 245 223 212
4.363455 1.173791 1.963690 231 230 226
4.448179 0.489763 1.973525 91 67 65
5.067255 -0.499131 1.825363 255 253 241
4.051614 0.062710 2.024203 255 255 251
4.541694 -0.080410 1.946038 158 138 131
4.893158 0.236501 1.882309 134 105 99
3.970568 -1.053808 1.975334 67 63 80
5.035750 0.703906 1.857137 255 232 221
4.742620 -0.422833 1.891808 255 254 250
4.652266 -0.631120 1.892617 101 73 70
4.231879 0.474882 2.006535 255 247 244
5.253886 -0.053362 1.801550 253 248 242
4.190565 -0.677885 1.967519 62 49 56
4.353516 -0.991610 1.915552 255 255 250
4.198008 -0.354889 1.983187 235 216 209
3.978263 -0.580245 1.998368 253 238 231
4.695229 -0.005707 1.914021 160 147 138
5.014954 -0.291262 1.840425 255 243 236
3.693471 0.041472 2.062306 110 87 71
4.685566 -0.439176 1.898238 140 120 113
5.159951 0.796156 1.846200 121 123 122
4.814101 0.654209 1.903687 104 86 86
4.304234 -1.080127 1.917412 211 196 189
4.344316 1.171558 1.967306 221 220 218
4.164020 -0.255472 1.993713 140 116 112
4.113388 0.230613 2.019012 244 225 219
4.201575 -0.407994 1.979276 108 85 79
4.738569 -0.438442 1.891574 96 91 88
4.595296 0.399549 1.944303 255 233 226
5.290463 0.161866 1.800349 139 121 121
4.151566 0.511090 2.018448 241 220 215
5.255988 0.982881 1.808713 202 176 163
4.331212 0.374431 1.994377 124 120 108
4.508511 -0.723630 1.912755 233 216 209
5.050399 0.465739 1.850384 255 253 244
4.368538 -0.271944 1.966996 255 247 241
4.262965 1.051433 1.982796 53 52 58
3.859938 0.796696 2.067952 104 89 96
3.642411 0.282905 2.077535 250 227 219
5.235287 0.718822 1.829887 146 150 151
4.512838 0.113165 1.958724 137 126 122
5.222210 -0.566190 1.802916 102 88 85
4.399698 0.862736 1.987870 59 40 42
5.268403 -0.200764 1.800696 255 246 240
4.887897 -0.400928 1.861382 123 113 111
3.845920 -0.498417 2.025899 111 101 99
3.951406 -0.030753 2.026968 246 243 238
4.340532 -0.755411 1.933968 101 94 88
4.543668 -0.942414 1.889170 255 251 239
5.052115 0.316469 1.850194 255 255 246
4.733831 -0.479982 1.889766 255 252 242
4.471309 0.184365 1.968536 249 234 231
4.192224 -0.078816 2.005000 96 96 96
4.459044 -0.426951 1.940666 214 199 196
4.032527 1.008568 2.024796 66 64 69
4.397104 -0.506350 1.957094 87 84 77
5.201823 0.278718 1.818114 255 251 244
4.348446 0.312369 1.991008 147 121 122
4.348464 0.101212 1.985082 255 238 237
4.033710 -0.819008 1.976253 97 74 66
3.758161 -0.168758 2.047920 107 93 90
3.862444 0.818577 2.066437 244 225 219
4.658107 -0.569732 1.894085 167 152 147
5.294741 0.414006 1.808230 110 106 105
4.190421 -0.885078 1.951825 67 59 72
4.314187 0.082598 1.990096 255 246 240
5.052648 0.012460 1.839739 254 241 235
4.965536 0.097727 1.863928 108 97 95
4.423812 1.178148 1.954587 75 74 72
4.108439 0.096279 2.013955 246 242 231
4.865641 -0.894965 1.849404 247 250 243
4.605147 0.298098 1.943630 99 99 89
5.142557 0.875721 1.853748 59 55 52
4.269158 1.021143 1.980000 204 189 184
4.721931 -0.746214 1.872650 250 245 239
4.800158 0.659867 1.908649 255 251 250
4.860318 0.109797 1.888846 128 131 136
5.188061 0.385606 1.823125 253 226 215
4.215200 0.522211 2.009891 108 87 84
3.916924 -0.430569 2.012951 254 251 242
4.044660 -0.243077 2.012533 246 226 219
4.622223 0.430569 1.948249 197 192 196
4.119090 0.014214 2.011765 254 236 232
4.965741 -0.150915 1.858530 105 105 103
4.467262 0.081138 1.964733 255 251 244
4.682168 -0.550124 1.890312 120 101 97
4.181851 0.132289 2.014377 76 76 76
4.199280 -1.022216 1.937024 255 252 243
5.179518 0.369864 1.826946 77 65 67
4.675990 -0.426985 1.901809 255 248 238
4.598504 -0.490734 1.911169 112 97 94
4.082788 0.263715 2.025228 131 123 120
4.088490 -0.756812 1.974264 255 254 244
4.729777 0.381721 1.923280 237 236 234
4.542112 0.396557 1.953507 250 219 214
4.248816 0.576888 2.006541 227 207 198
4.988647 -0.748721 1.833724 245 241 232
4.125785 -0.161015 2.004927 118 101 94
4.599239 -0.492391 1.911751 255 252 251
4.210467 -0.713918 1.958461 255 248 238
4.205241 0.132428 2.005123 216 207 200
4.189361 -0.541006 1.973802 255 250 239
4.623151 0.115567 1.936779 96 67 63
4.405877 -0.246556 1.963242 255 252 246
4.502536 0.396335 1.963056 155 117 116
4.683898 0.865248 1.935665 218 213 207
5.089905 0.305853 1.838809 255 240 234
3.845198 -0.442314 2.029111 182 182 182
5.141412 0.051496 1.823418 127 100 93
5.071357 0.875219 1.864907 222 216 216
5.072184 0.086997 1.838581 255 249 242
5.020660 0.400296 1.856582 255 249 247
5.309308 -0.061365 1.792474 119 104 99
4.986764 -0.484690 1.839099 126 111 106
3.615701 0.044454 2.078122 228 225 220
5.216843 0.730669 1.827156 89 56 49
4.196213 0.096350 2.003253 90 68 57
5.189982 0.424366 1.820096 116 87 89
3.718304 -0.493832 2.038552 109 96 88
5.181417 0.645768 1.835827 90 81 84
4.635514 -0.238107 1.922030 81 72 75
4.667625 -0.502722 1.897176 249 240 231
4.891138 -0.829157 1.844227 109 102 94
5.114982 -0.013007 1.829683 225 215 206
3.623289 -0.764678 2.050069 244 233 229
4.792216 1.125394 1.888766 43 50 58
4.650748 -0.145856 1.918750 135 118 110
3.938951 -0.922189 1.988050 255 247 241
4.643306 -0.896462 1.879233 255 249 240
4.096813 0.228879 2.021409 132 102 100
4.632874 -0.254625 1.927517 195 194 190
4.729379 -0.087944 1.910718 255 250 243
4.048233 0.194192 2.026063 248 223 216
5.233850 -0.474983 1.801260 255 252 246
4.179340 0.579008 2.021358 56 47 50
5.225336 -0.074288 1.806082 132 113 106
4.587336 -0.505184 1.915703 233 223 213
4.859247 -0.027025 1.884584 93 91 92
4.349798 0.461109 1.986290 241 224 217
4.971049 -0.096312 1.857528 242 241 236
4.130363 -0.193400 2.003139 253 248 242
4.574325 1.171028 1.924200 97 76 81
4.493326 -0.748216 1.908938 226 223 208
4.789472 1.144204 1.889609 240 245 241
4.741182 0.178747 1.913345 251 237 237
4.309896 0.461545 1.999270 229 216 210
5.182590 -0.444500 1.808475 255 251 242
4.419308 -0.092448 1.973782 116 114 115
4.491347 -0.473188 1.931073 106 78 75
4.425460 1.234231 1.894555 88 88 90
3.710087 -0.171421 2.055130 110 93 86
4.596758 -0.455833 1.912935 255 237 233
5.179748 0.332487 1.826845 95 85 84
5.051345 0.954482 1.872282 95 97 92
4.868104 -0.860179 1.842552 255 253 241
4.069531 -0.711016 1.976166 120 105 102
5.190795 0.483776 1.823748 255 248 240
4.830293 -0.100392 1.887760 255 249 240
5.179518 0.369864 1.826946 77 65 67
4.506846 -0.911142 1.894631 249 236 228
4.517858 -0.212401 1.942325 152 132 125
4.200356 -0.996496 1.936736 237 222 219
3.969559 0.048186 2.032424 217 199 195
5.099606 -0.476752 1.820610 137 126 120
4.573850 -0.652045 1.902767 234 214 213
4.099561 0.249087 2.019721 255 251 243
5.284404 0.634208 1.818649 105 91 91
4.856711 -0.242199 1.876253 174 150 148
5.130424 -0.478047 1.817187 132 118 115
4.829964 -0.500493 1.867168 253 252 247
4.644618 -0.148834 1.921853 99 80 74
4.557644 -0.439600 1.922526 130 112 112
4.264019 0.164744 1.999764 113 99 96
4.560731 1.163222 1.930684 255 247 239
4.589272 0.754346 1.949260 96 77 70
5.160522 0.789893 1.838483 83 64 70
4.465731 0.080111 1.964355 255 252 243
4.503307 -0.576152 1.927584 255 250 241
4.083470 0.259569 2.021136 116 98 94
4.485350 -0.670574 1.917008 255 248 237
4.028066 0.938033 2.034556 85 76 77
4.901440 -0.001479 1.873290 165 139 138
5.230392 -0.479781 1.800480 129 119 109
4.050524 -0.421563 2.004080 255 248 239
4.391969 -0.003695 1.972500 146 135 133
4.868404 -0.675809 1.851595 138 117 112
4.318180 0.456904 1.994764 233 215 211
4.059275 0.168939 2.025734 85 69 69
5.124629 0.792796 1.851339 90 68 71
3.850043 -0.442614 2.023873 251 239 225
4.502749 0.474980 1.968318 255 243 236
4.861575 -0.653986 1.849937 94 90 81
4.279468 0.941276 2.002717 212 211 209
4.614145 1.016147 1.916063 205 204 202
4.909773 0.543784 1.885433 120 89 84
4.195342 0.871909 2.019055 249 244 238
4.506106 0.314119 1.969596 105 105 103
3.731113 0.094068 2.063216 122 118 119
4.812704 0.105624 1.893964 143 118 114
4.158410 1.171127 1.999606 187 188 183
4.660504 0.349562 1.931687 125 105 98
4.413980 -0.573356 1.944432 88 90 87
4.537499 -0.733267 1.906097 255 252 245
4.175161 0.134812 2.016122 109 104 98
4.878829 0.423163 1.888627 121 100 95
4.445575 0.074395 1.969005 128 109 102
5.072111 -0.481320 1.825825 255 245 241
4.187296 0.478230 2.013139 142 123 117
5.058108 -0.316511 1.830639 116 107 102
3.753444 -0.149597 2.049493 239 221 219
4.879219 -0.134782 1.876673 255 246 239
5.189583 -0.145114 1.812032 255 253 248
4.521545 -0.621537 1.919597 250 255 255
5.091308 0.106319 1.837464 253 238 235
5.287179 0.550175 1.809643 255 250 248
4.745001 -0.132133 1.902941 255 248 248
4.686986 0.704603 1.929111 249 229 222
5.204980 -0.044628 1.809673 254 244 235
5.078520 0.021065 1.837950 117 93 91
4.200518 -0.204790 1.993816 130 105 100
5.145323 0.720961 1.839886 134 100 98
5.067193 0.758323 1.854257 255 246 235
4.541353 -0.951115 1.893067 113 109 108
3.794948 0.342715 2.059685 123 114 109
4.794727 0.943680 1.911950 226 216 214
4.183889 1.174625 2.000619 87 93 93
3.746530 -0.714788 2.026782 109 89 88
5.112879 -0.474647 1.816492 135 121 112
4.998845 0.713156 1.870195 255 255 255
4.670847 -0.571718 1.894122 226 216 207
4.961198 -0.311239 1.855542 103 101 102
4.531604 -0.574873 1.919539 255 252 248
5.005928 -0.473181 1.837343 145 140 136
4.211017 0.340229 2.005005 255 240 236
5.074880 -0.507080 1.824655 255 254 241
4.153423 0.470657 2.017656 121 106 101
4.862526 0.010419 1.880286 126 107 101
4.186199 0.139926 2.011450 236 238 237
4.272439 -0.174142 1.983384 149 131 127
4.457856 0.055088 1.964252 220 211 206
4.898849 -0.340676 1.867309 255 242 233
4.641400 -0.041326 1.928838 122 120 121
5.041585 0.705573 1.859132 255 233 219
4.328107 -0.273579 1.973934 255 250 246
3.956134 -0.004796 2.028679 255 242 238
4.078907 -0.250385 2.007938 134 123 117
4.692278 0.543313 1.925929 216 189 182
5.076729 0.878535 1.864477 28 26 27
4.766507 0.888019 1.916996 214 204 205
4.656985 1.252282 1.851479 208 226 226
4.977945 0.053238 1.859861 120 99 94
5.052115 0.316469 1.850194 255 255 246
4.185332 0.485302 2.015535 94 69 65
4.296031 -0.081977 1.983719 255 250 243
5.122397 -0.256445 1.818841 255 250 233
5.242989 0.075860 1.812247 254 255 251
4.410295 0.488869 1.980368 102 77 72
4.523551 0.117651 1.957280 134 115 109
5.277260 -0.649363 1.794133 255 253 247
4.141830 0.481923 2.019364 96 75 70
3.962583 -0.237769 2.028149 61 57 58
5.066994 0.763787 1.854141 255 251 241
4.739255 -0.256433 1.909815 128 127 125
3.946015 -0.014025 2.030585 255 247 244
4.137594 0.411145 2.018652 255 244 237
5.144858 0.796032 1.843575 249 249 249
3.887339 -0.502856 2.017403 104 95 88
4.689281 -0.748034 1.877198 255 254 248
4.069913 1.087087 2.014323 244 236 233
3.988406 -0.754185 1.986017 255 250 237
4.169636 0.416508 2.013375 126 103 97
4.124895 0.084611 2.010848 128 107 102
3.924551 0.130816 2.037726 240 229 223
4.261580 -0.833079 1.940956 250 233 225
4.061905 0.164186 2.022854 255 243 234
5.169405 0.814667 1.837860 237 212 205
4.845357 -0.825544 1.848722 131 118 102
4.127134 0.940410 2.025444 91 72 76
5.295295 0.723832 1.824234 254 255 255
4.858467 -0.727489 1.854308 108 113 109
4.849586 -0.238702 1.881926 255 252 245
5.097672 0.420299 1.841778 107 86 81
4.390789 0.543643 1.983242 60 49 47
4.297565 1.051580 1.975659 201 196 192
4.789127 1.047347 1.886203 237 228 219
4.115784 -0.742400 1.971379 255 252 250
4.161929 0.159105 2.011278 255 247 243
3.626464 -0.767975 2.050313 62 51 57
4.916766 0.479262 1.880173 154 123 118
5.045089 -0.473280 1.830441 255 248 246
4.013207 0.083174 2.024035 255 246 242
4.972561 0.396385 1.873896 124 121 116
5.164949 -0.013037 1.819834 250 241 234
4.074378 1.006239 2.011443 88 78 76
5.135745 0.017237 1.824875 255 250 248
4.089902 -1.078290 1.952967 238 233 230
5.066373 0.242193 1.845884 255 249 240
4.454517 -0.140409 1.959883 170 148 137
4.042805 0.807922 2.035070 98 81 74
4.604154 -0.003852 1.934166 165 145 144
5.046194 -0.461823 1.831203 144 129 124
4.672319 -0.050213 1.919126 132 103 95
4.302383 -0.120497 1.985421 255 244 237
5.157312 0.046626 1.820104 255 229 220
4.104831 0.308701 2.018867 111 98 92
4.073845 -0.276479 2.009561 209 210 205
5.127909 -0.477411 1.817117 255 247 244
4.207050 -0.285321 1.987541 255 248 242
4.627295 0.424061 1.938305 255 231 226
4.282669 0.166412 2.001132 252 252 250
4.634094 -0.249028 1.924742 200 198 199
4.990277 -0.788467 1.831535 255 255 234
3.731367 -0.570555 2.036603 71 64 71
4.441486 0.805444 1.976516 254 243 239
3.880080 -0.504192 2.021942 89 82 76
4.477468 0.461976 1.969382 255 250 244
4.817225 0.222216 1.899271 251 241 232
4.702435 -0.518521 1.890548 117 102 95
4.729286 -0.478389 1.888639 117 92 85
4.133026 -0.577523 1.979521 120 106 97
4.536129 -0.483077 1.922179 255 253 248
4.514543 0.208622 1.964800 73 69 68
4.107816 0.325248 2.019299 124 105 101
4.432078 -0.673651 1.926188 136 111 104
4.305954 0.698218 1.995691 212 189 183
4.514338 0.111875 1.957995 255 249 243
4.384649 0.170235 1.979625 237 226 222
5.166834 0.830844 1.841602 98 65 60
4.074846 -0.320179 2.006223 255 255 246
4.518517 0.957588 1.934944 251 251 253
4.041329 -0.511651 1.994596 248 243 237
4.823864 0.141022 1.892776 255 249 243
5.035463 1.165523 1.841820 226 216 214
5.071259 0.017656 1.837334 113 88 83
4.504383 0.079871 1.959943 123 106 99
4.761562 -0.477578 1.880985 136 119 112
4.732139 -0.423621 1.898523 77 66 60
4.213257 0.212636 2.011304 146 131 128
5.001697 0.652716 1.864104 255 238 234
4.831133 -0.567458 1.866208 152 133 126
3.841983 0.315010 2.056729 241 226 221
4.960318 0.014483 1.863451 255 252 241
4.361341 0.004415 1.980932 115 97 93
4.962873 0.819562 1.877805 107 87 89
4.205914 0.566565 2.011262 125 97 93
4.940582 -0.389753 1.851719 123 110 102
4.158941 -0.329108 1.990004 137 117 116
4.084295 -0.133530 2.011538 255 248 241
5.090775 0.720305 1.850061 139 101 98
3.850127 0.507698 2.060740 72 61 67
4.626954 0.458579 1.941036 248 235 226
3.750953 -0.179914 2.050481 143 136 130
5.145271 0.830945 1.845343 103 83 84
5.070287 0.020811 1.841254 128 111 104
4.058277 0.050822 2.017097 194 184 175
4.447878 -0.456361 1.937922 232 215 208
3.852269 0.490492 2.058076 255 252 240
4.844109 -0.499463 1.864088 255 250 238
4.873784 0.222556 1.885342 95 75 66
4.203353 -0.589372 1.966801 250 240 231
4.728165 0.399893 1.913937 255 246 241
4.591933 0.429298 1.949190 255 236 232
4.413646 -0.687919 1.933279 94 89 93
4.193668 -0.090621 2.003709 130 134 133
4.034443 -0.224882 2.013752 255 233 225
4.252587 -0.079673 1.991456 133 112 107
4.846493 -0.500009 1.863549 255 251 238
4.180872 -0.900167 1.944758 255 247 237
4.316367 -1.113061 1.914469 149 144 141
4.304257 0.835954 2.003250 75 66 69
5.029795 -0.786404 1.827299 118 99 93
4.163718 -0.274412 1.993388 241 211 203
4.727670 -0.542642 1.883487 255 245 240
5.089005 0.111860 1.840768 62 56 58
5.160459 -0.079471 1.818289 255 249 246
4.503662 0.219068 1.968652 245 244 240
5.312208 0.637464 1.821312 86 73 82
4.870295 -0.381256 1.865132 136 116 109
4.666068 1.165379 1.907030 92 90 91
4.934085 -0.386407 1.852870 128 109 103
3.826081 -0.936358 2.003103 131 125 113
4.953231 1.179395 1.866879 52 52 60
3.728205 0.248684 2.068056 94 77 83
4.282889 -0.669176 1.948281 255 250 244
4.451277 -0.478401 1.935827 255 251 249
5.111930 0.130418 1.832946 116 88 84
3.677463 -0.378974 2.049929 255 247 242
5.197943 -0.475317 1.803177 94 83 79
4.191239 0.973143 1.991301 236 235 230
4.468525 -0.571244 1.927164 149 132 125
4.636683 -0.559451 1.905968 138 136 139
5.066994 0.763787 1.854141 255 251 241
4.475316 -0.069706 1.959005 255 250 242
4.531416 -0.289184 1.936100 255 243 236
4.245902 -0.807728 1.944086 255 237 239
4.957574 -0.293127 1.854584 255 254 248
5.303929 -0.239242 1.794484 105 81 81
4.736378 -0.958412 1.861091 255 235 225
4.869454 1.059763 1.874601 41 39 42
4.648239 1.037789 1.911026 208 208 210
4.247998 0.326371 2.002828 255 246 246
4.284191 0.241024 1.994087 132 113 109
3.960969 0.911567 2.055093 230 232 219
4.700653 -0.483662 1.891926 116 91 86
4.637565 -0.239006 1.921540 97 86 84
5.207980 -0.112295 1.810354 128 105 99
5.281540 0.838705 1.824938 134 108 107
4.036535 0.094977 2.022969 253 233 226
5.201375 0.093890 1.812803 127 104 98
4.337672 -0.271377 1.972707 65 54 48
4.033365 0.849100 2.037728 255 239 233
4.530780 -0.803997 1.908704 85 80 86
5.120958 0.319843 1.835014 161 140 135
5.016582 -0.785416 1.826634 248 231 224
4.198354 -0.512241 1.974074 120 113 103
3.909932 0.314800 2.047736 255 231 224
4.508511 -0.723630 1.912755 233 216 209
3.724511 -0.309368 2.044394 143 136 130
4.686697 -0.441814 1.898064 131 104 95
4.805653 -0.125790 1.890482 120 92 88
4.203565 0.098366 2.001668 126 103 97
4.784863 0.111745 1.899762 255 251 247
5.186649 -0.118181 1.812595 88 82 84
5.029491 -0.465001 1.832419 98 76 78
4.711828 1.244617 1.845946 208 230 228
3.767030 -0.080589 2.050951 146 127 120
4.445235 -0.732680 1.920804 119 95 93
5.010278 0.400292 1.863973 255 252 250
5.018878 -0.464793 1.832414 119 107 107
4.288038 0.541726 2.004765 101 101 99
4.335658 0.374898 1.991874 250 243 233
4.062419 -0.578186 1.985658 255 250 247
4.655934 0.623414 1.934494 254 247 237
5.027194 0.945251 1.866696 236 221 214
5.298761 0.452495 1.807435 255 248 241
4.427085 -0.090721 1.966368 131 95 95
4.617147 0.862238 1.944381 255 251 248
4.788173 0.077308 1.896102 115 102 94
3.874782 -0.923434 1.998794 255 245 243
4.414270 0.737507 1.979843 237 208 200
3.966637 -0.431186 2.009321 222 216 204
