ply
            format ascii 1.0
            element vertex 65964
            property float x
            property float y
            property float z
            property uchar red
            property uchar green
            property uchar blue
            end_header
3.630674 0.313470 2.103139 255 239 230
4.640044 -0.144636 1.925544 255 251 243
3.601952 -0.609683 2.048076 109 99 90
3.969934 0.265519 2.053190 253 234 227
3.524345 0.733162 2.121151 241 204 188
4.018956 0.281750 2.043341 245 231 230
4.512484 0.094564 1.950057 255 242 235
3.915622 -0.482687 2.013272 255 238 231
4.643103 0.094586 1.931585 255 247 246
4.292115 -0.272610 1.971741 116 100 103
3.492488 0.760478 2.129719 255 240 234
4.609386 0.299046 1.943443 97 87 86
3.980597 0.247987 2.048574 162 143 136
4.631684 -0.182942 1.930089 79 74 71
4.440503 0.205008 1.969889 250 226 222
3.837527 0.264810 2.076585 255 247 242
4.214563 0.341092 2.019276 134 121 113
4.417299 0.875318 1.996984 250 250 242
4.114418 0.505094 2.033458 255 248 241
3.723255 0.064827 2.087012 154 145 138
4.185811 0.501194 2.021152 251 232 225
3.888921 0.497872 2.068385 124 101 95
3.701256 -0.162466 2.073398 255 248 239
4.529502 0.941679 1.985214 106 93 87
3.512261 0.706909 2.125853 141 123 119
3.766861 -0.162181 2.063895 148 129 123
3.723497 -0.143676 2.070695 139 120 114
3.624674 0.817405 2.114692 232 218 209
4.145077 0.252355 2.019075 134 119 116
3.250076 0.312045 2.141352 97 78 72
4.117672 0.484929 2.032395 126 106 97
4.506267 0.223274 1.964034 253 255 252
4.056139 -0.243444 2.011568 255 244 236
3.396909 0.834249 2.140070 226 203 195
3.623731 0.693074 2.114410 126 122 119
3.308199 0.873097 2.161744 246 218 214
3.851085 0.260461 2.072359 247 232 229
3.788734 -0.290897 2.052254 246 233 225
4.129015 0.243559 2.015861 121 92 94
4.522168 -0.167970 1.945156 72 62 53
3.724776 0.385692 2.093939 95 94 89
3.793721 0.117733 2.079034 255 245 243
3.741578 -0.257286 2.070630 225 224 219
3.777014 -0.144963 2.065440 111 97 94
3.944766 0.003633 2.043449 255 251 243
4.300279 -0.476594 1.961854 113 97 97
4.057838 0.146079 2.039860 224 224 212
4.195116 -0.096360 2.006741 229 231 228
3.646347 0.281437 2.103446 135 105 103
3.725245 0.386190 2.100368 95 94 89
3.566189 -0.112034 2.082834 74 64 63
3.578184 -0.191030 2.076900 73 68 64
4.011940 -0.426580 2.013018 79 69 60
4.011940 -0.426580 2.013018 79 69 60
4.926775 -0.413737 1.865634 76 72 63
3.661285 -0.260887 2.064860 255 255 246
5.003264 -0.331686 1.855230 101 93 90
4.724126 -0.418156 1.902751 75 66 59
3.679798 0.299375 2.087507 255 253 242
4.578591 0.470632 1.958724 72 58 58
4.251683 0.703877 2.023128 90 84 72
3.494525 -0.422050 2.071652 255 252 243
4.801553 0.235567 1.915901 255 250 243
4.005182 0.223492 2.048658 255 254 243
3.411544 0.209177 2.122582 76 70 70
4.767230 0.632532 1.932447 78 69 64
4.485590 -0.571251 1.926278 238 225 217
4.032056 -0.015445 2.031518 228 215 207
3.411544 0.209177 2.122582 76 70 70
4.600668 -0.570381 1.907346 254 248 232
3.596581 -0.351729 2.069384 79 75 72
4.388813 0.865953 2.005734 93 89 80
4.709422 -0.336673 1.909016 90 79 73
3.675473 0.050611 2.079305 68 58 56
4.709422 -0.336673 1.909016 90 79 73
3.563107 -0.106604 2.084097 255 255 248
4.110873 -0.573875 1.983694 255 248 230
3.743334 0.533665 2.091063 250 252 241
4.359303 -0.743648 1.930282 86 82 71
5.021783 -0.001445 1.862218 255 252 247
4.982385 -0.000285 1.870533 227 219 217
4.758992 -0.414154 1.888798 91 82 77
3.933367 -0.347015 2.028658 79 66 60
4.376010 -0.582883 1.951883 84 75 68
4.894415 -0.003779 1.886663 238 237 232
4.219786 -0.744572 1.953154 74 74 64
4.790096 0.317215 1.918706 255 255 250
3.474831 0.363999 2.112147 238 226 214
4.446496 0.140340 1.973193 83 75 73
4.758992 -0.414154 1.888798 91 82 77
4.743490 -0.417521 1.899927 84 71 63
3.933367 -0.347015 2.028658 79 66 60
3.704887 0.045419 2.070887 245 237 216
4.446496 0.140340 1.973193 83 75 73
3.787236 0.858689 2.089296 90 80 79
3.236932 0.295504 2.147403 255 254 247
4.681110 -0.409392 1.903781 254 233 228
4.540174 -0.010910 1.951046 255 250 244
4.705830 -0.006118 1.920675 255 252 240
3.552410 -0.032563 2.091575 109 98 96
4.518149 -0.825249 1.908505 93 84 77
3.327535 -0.189935 2.112212 245 242 227
4.568350 -0.171103 1.939445 255 252 249
4.446733 -0.491618 1.937497 249 242 236
3.365145 0.459371 2.131678 255 255 240
5.003264 -0.331686 1.855230 101 93 90
3.357284 0.539649 2.136488 255 251 239
4.610914 -0.097181 1.941110 73 64 57
4.307042 0.140558 1.993910 92 73 66
4.928770 -0.409168 1.875430 251 241 232
4.610914 -0.097181 1.941110 73 64 57
4.890256 -0.243043 1.878555 223 200 194
4.307042 0.140558 1.993910 92 73 66
4.550210 0.395572 1.960808 255 251 245
4.358999 -0.754373 1.932703 251 244 236
3.996877 -0.425557 2.012911 82 72 62
4.344667 0.790114 2.014071 89 82 76
4.797209 -0.246473 1.896373 255 255 248
4.378224 -0.502941 1.952186 92 92 84
4.379436 -0.909847 1.925040 83 76 66
4.359303 -0.743648 1.930282 86 82 71
4.916341 0.311636 1.892987 65 64 60
4.107822 -0.016660 2.021920 255 255 248
3.996877 -0.425557 2.012911 82 72 62
3.633808 -0.273055 2.072851 79 71 68
4.800826 -0.006835 1.903772 238 231 225
3.662055 0.618372 2.103333 66 58 55
4.332923 0.788523 2.011661 81 69 69
3.327899 0.540498 2.144360 255 252 243
4.277638 -0.738111 1.948682 254 255 241
4.991966 0.563820 1.898828 255 252 243
3.596581 -0.351729 2.069384 79 75 72
4.035985 0.224620 2.040318 255 255 243
4.562979 -0.742149 1.904034 92 92 84
4.566386 -0.009724 1.940879 255 251 245
4.656428 0.309274 1.942677 89 78 74
4.733048 -0.487265 1.892744 241 216 209
4.157748 -0.820002 1.961491 255 254 248
4.934290 -0.085989 1.879415 255 253 245
3.672083 0.536993 2.099691 105 96 91
4.792776 -0.328947 1.895560 255 247 235
3.986978 0.866707 2.070249 84 75 70
3.986978 0.866707 2.070249 84 75 70
4.832350 -0.407566 1.878863 255 253 248
4.817430 -0.497056 1.884642 77 70 62
3.464080 0.542901 2.127188 255 253 253
3.631038 -0.351393 2.068246 91 90 86
4.953341 -0.500394 1.871087 65 60 54
4.555558 -0.814623 1.902875 211 206 200
4.483540 -0.171084 1.953262 255 255 253
4.953341 -0.500394 1.871087 65 60 54
3.607288 -0.191732 2.080096 75 68 62
3.809336 0.540916 2.091308 71 62 55
4.379436 -0.909847 1.925040 83 76 66
4.217030 -0.828000 1.953226 75 66 61
4.237994 0.227452 2.015032 255 255 243
3.655284 -0.348247 2.050710 94 86 83
3.774598 -0.022547 2.062786 255 255 244
4.378224 -0.502941 1.952186 92 92 84
3.768173 0.705109 2.092933 221 212 203
4.900788 0.311008 1.889702 85 82 77
3.319135 0.043951 2.125101 47 41 41
4.699405 -0.085437 1.895356 247 237 225
4.233430 0.465439 2.019293 85 75 65
4.469367 -0.574552 1.932271 255 251 244
4.591286 0.872002 1.973293 78 73 70
3.973527 -0.426309 2.017808 79 70 63
3.351003 0.777774 2.157511 82 71 69
3.655284 -0.348247 2.050710 94 86 83
4.709856 0.317213 1.934338 255 255 251
4.333107 0.866235 2.016054 104 101 94
4.817430 -0.497056 1.884642 77 70 62
4.484376 -0.734956 1.917552 255 255 244
3.809336 0.540916 2.091308 71 62 55
4.920798 0.794351 1.909721 103 94 87
4.344667 0.790114 2.014071 89 82 76
4.657231 -0.647875 1.891380 240 233 225
4.100358 -0.417188 1.993951 215 200 197
4.695327 0.471433 1.941009 72 61 59
3.577514 0.703515 2.116266 255 255 246
3.934195 0.379643 2.060599 69 58 54
3.973527 -0.426309 2.017808 79 70 63
4.277212 -0.343633 1.979056 106 98 96
3.468459 0.454123 2.120083 56 47 48
3.664112 -0.189368 2.077369 86 75 71
4.751148 -0.415132 1.893222 72 61 55
3.648938 0.537687 2.106978 85 78 72
4.553498 0.791372 1.975375 66 61 58
4.846571 -0.007169 1.896648 243 240 235
4.442833 -0.824206 1.914991 72 63 54
3.319135 0.043951 2.125101 47 41 41
3.900346 0.547537 2.073839 255 254 246
4.169756 -0.747993 1.966291 83 76 70
4.349002 -0.015287 1.987744 255 251 245
4.591239 -0.333058 1.928960 255 252 246
4.744790 -0.336532 1.905350 77 67 58
4.124035 0.377587 2.035408 241 237 228
4.399415 -0.825432 1.925721 81 73 60
3.589829 -0.433363 2.068228 76 66 56
4.994066 -0.002191 1.869816 255 254 248
4.587580 0.152805 1.951133 248 241 233
3.854393 -0.295988 2.039332 120 108 112
3.339338 -0.115034 2.120131 69 64 61
4.046492 0.704171 2.057892 86 81 77
4.568228 0.471152 1.966577 80 71 66
4.556650 0.389626 1.966334 73 65 62
4.886257 -0.646525 1.855056 237 220 213
3.698885 0.532431 2.097599 255 252 240
3.803377 0.132552 2.063735 86 81 77
4.013535 0.535311 2.049650 226 201 197
4.758053 0.317673 1.922936 255 253 243
4.887876 -0.165993 1.883044 255 251 246
5.007565 0.162177 1.872219 255 254 238
3.829134 0.626175 2.083649 240 237 232
3.488933 0.542685 2.119409 228 228 220
3.626467 -0.189882 2.073227 96 91 88
4.765319 0.793321 1.935089 88 81 75
4.057951 -0.739517 1.982241 255 252 253
4.046492 0.704171 2.057892 86 81 77
3.590581 -0.030430 2.092611 70 62 60
4.830446 -0.326832 1.882122 255 254 239
4.672192 -0.170770 1.924506 239 235 232
4.005001 0.467159 2.051337 255 253 250
3.482278 0.865214 2.141315 255 254 241
4.814798 0.235853 1.909652 255 252 242
4.774187 -0.100017 1.904191 255 255 237
4.338404 0.472913 2.006043 255 255 244
3.562780 0.619801 2.127199 98 95 90
4.377262 -0.571994 1.943709 243 229 226
4.251924 -0.819178 1.946720 255 255 243
4.038950 0.865978 2.060856 68 58 57
4.271308 -0.016011 1.998869 255 254 250
4.464669 -0.493123 1.936751 254 249 243
3.869045 0.211352 2.058430 253 243 233
4.033013 -0.506082 2.004293 77 70 62
3.529835 -0.272591 2.084416 66 58 56
3.934044 -0.019379 2.043051 255 254 251
4.933350 -0.175670 1.873707 248 239 234
4.343776 -0.024956 1.983805 255 251 241
4.284494 0.335108 2.014552 251 227 217
3.824855 0.133622 2.060736 81 72 65
4.879223 -0.496824 1.870223 71 64 58
3.403670 0.614697 2.133396 97 90 84
4.742012 0.633139 1.939042 85 76 69
3.552410 -0.032563 2.091575 109 98 96
4.940072 -0.404848 1.859714 255 253 246
4.491330 -0.011061 1.960734 255 254 250
4.887848 -0.004732 1.891672 243 240 235
4.647332 0.308648 1.941569 79 68 62
3.893491 -0.180507 2.041388 255 251 245
4.713173 0.712385 1.944347 104 91 85
4.889728 0.312351 1.910721 77 72 68
5.018241 0.154397 1.870376 93 90 81
4.498388 0.791491 1.988723 84 80 71
4.652430 -0.330085 1.915218 255 250 240
4.341180 -0.736553 1.937146 252 244 231
3.978993 0.945881 2.070928 97 93 92
5.029403 0.154682 1.873660 90 89 85
4.744790 -0.336532 1.905350 77 67 58
4.349023 -0.188714 1.974322 231 218 210
3.824855 0.133622 2.060736 81 72 65
3.807548 -0.099950 2.051733 255 252 241
3.944656 0.542235 2.067276 95 89 77
3.853926 0.378294 2.073519 91 82 75
3.822605 0.533708 2.079134 255 254 240
4.038950 0.865978 2.060856 68 58 57
3.954623 0.244163 2.053765 66 49 55
3.797828 -0.258931 2.043292 255 255 243
4.455018 -0.573906 1.933313 255 254 248
3.817476 0.302994 2.078634 255 255 244
4.072908 -0.818983 1.979558 219 200 185
4.126529 -0.751346 1.976293 81 76 70
3.926151 0.622514 2.072539 51 40 34
3.831860 0.295745 2.073444 95 82 73
4.872872 -0.165988 1.885343 255 252 247
3.599370 0.785619 2.123506 255 251 242
3.858922 0.384529 2.068177 255 254 247
3.939810 -0.658441 1.998037 255 251 237
4.116231 -0.821016 1.967317 249 234 227
4.859703 -0.507973 1.881465 226 208 196
4.209249 0.465823 2.026769 84 77 71
4.491308 0.314981 1.967692 238 235 230
4.884323 -0.167426 1.891343 255 248 246
4.319625 -0.343030 1.972597 103 94 87
4.283046 0.634066 2.013929 246 246 236
4.017808 -0.017767 2.034368 250 246 234
4.700371 0.228735 1.935989 84 74 64
4.831963 -0.174219 1.902178 64 53 47
4.665971 0.154228 1.938065 255 254 251
3.643345 0.050088 2.080546 91 82 77
4.208983 0.465614 2.025308 84 77 71
4.811303 -0.244402 1.893790 255 255 251
4.347646 0.555266 2.006549 255 255 246
4.639106 0.309150 1.948519 86 72 69
4.450911 0.134563 1.969501 255 240 235
4.981675 0.078916 1.881696 251 248 243
4.699333 0.477711 1.940116 255 255 242
3.855125 0.051241 2.058961 112 99 90
4.789511 -0.738665 1.868428 88 81 75
5.006440 -0.174157 1.857018 249 234 227
3.358435 -0.113973 2.110395 73 68 65
3.438591 0.459714 2.123868 255 254 239
3.719195 -0.343701 2.053643 255 253 243
4.606602 0.787488 1.962593 216 196 187
3.758181 0.453575 2.086659 254 241 233
3.358435 -0.113973 2.110395 73 68 65
4.990705 -0.402872 1.847862 218 207 203
4.239324 -0.653854 1.957027 249 239 229
4.933408 0.641241 1.904514 238 236 223
4.822901 0.235711 1.903830 255 253 244
4.868227 -0.497795 1.874137 81 70 64
3.950518 -0.419958 2.016987 234 211 205
4.614493 -0.411306 1.918674 255 253 251
4.968823 0.018902 1.874187 96 90 90
4.686360 -0.485948 1.895177 255 251 242
4.248278 -0.737521 1.949303 255 255 248
4.052192 0.943060 2.055058 79 69 70
3.511451 0.461354 2.115948 255 252 240
3.755805 0.462815 2.085693 255 255 246
4.430149 -0.100262 1.969237 80 72 69
4.085363 -0.016051 2.028513 235 226 221
4.964292 0.314403 1.892777 102 94 91
4.850938 -0.243733 1.890987 236 235 230
3.478071 -0.273231 2.090715 61 57 54
4.263343 0.552586 2.014876 255 255 241
4.337778 -0.414609 1.962288 255 254 242
4.872855 -0.098160 1.889018 255 255 237
4.667463 -0.486520 1.901491 237 224 218
4.552885 -0.338224 1.930482 95 86 81
4.743586 0.317404 1.928062 255 255 250
4.933042 -0.095718 1.879563 237 227 217
4.773584 -0.174545 1.903077 68 59 52
4.774642 -0.174686 1.905258 68 59 52
4.786728 0.228614 1.910505 90 75 68
3.576117 0.785326 2.126436 255 255 246
3.869626 -0.178709 2.039409 255 240 233
4.961164 -0.164718 1.878220 252 251 247
4.553821 -0.338757 1.933040 95 86 81
4.120356 0.458635 2.036874 254 235 221
4.249804 -0.272693 1.983893 255 245 240
4.766184 0.385258 1.916004 252 235 228
4.653017 -0.661115 1.900792 75 72 57
4.249373 0.466931 2.021324 71 58 50
4.251979 0.792733 2.021747 254 255 249
3.892861 0.627407 2.070226 255 250 241
3.276842 0.418261 2.145764 56 30 39
3.695709 -0.102509 2.070965 252 247 241
4.791523 0.228870 1.920267 90 75 68
3.257202 0.214126 2.143265 252 244 233
4.276293 -0.105422 1.989246 255 249 240
3.581935 0.126742 2.092486 244 234 224
5.027496 0.154706 1.870872 90 89 85
4.564093 -0.420100 1.928395 72 65 57
4.518971 -0.650265 1.915363 213 207 195
4.997342 -0.162235 1.862047 246 235 229
3.276536 -0.036482 2.131183 50 41 42
3.378909 -0.194322 2.105032 82 75 67
4.727581 -0.735075 1.889723 255 250 241
4.260674 -0.174638 1.988668 255 254 248
4.881583 -0.406375 1.870596 255 255 251
4.968823 0.018902 1.874187 96 90 90
4.612448 -0.572030 1.908055 255 254 242
4.599987 -0.582526 1.903811 255 254 242
3.776866 -0.504458 2.040305 253 246 238
4.423842 -0.062730 1.968721 234 218 205
4.444727 0.714839 1.992715 234 235 227
3.902851 0.296273 2.060376 75 67 56
3.540426 -0.346196 2.072660 255 253 243
3.674185 -0.023896 2.072021 251 246 242
4.873816 -0.488531 1.867863 251 251 241
4.199835 -0.828618 1.954267 93 88 84
3.859346 0.944007 2.088937 121 121 121
4.206418 -0.657242 1.966949 255 254 251
4.052192 0.943060 2.055058 79 69 70
4.167513 0.138493 2.025872 100 87 81
4.249456 0.466999 2.021735 71 58 50
3.572179 -0.026337 2.095043 255 255 244
4.120207 -0.109310 2.013080 233 206 195
4.494373 -0.171631 1.951943 255 253 250
4.403486 -0.093654 1.972246 242 241 236
3.312560 -0.107105 2.114564 243 234 227
4.041824 0.781991 2.054300 76 69 61
3.707380 0.532393 2.094019 255 255 239
5.027549 -0.487652 1.845165 238 229 220
3.617066 0.337794 2.097665 255 242 243
4.333673 -0.575647 1.949759 255 248 238
4.312324 -0.265865 1.976292 92 81 75
4.555321 0.395393 1.958637 255 255 243
4.450441 -0.094466 1.965421 255 255 251
3.483403 0.937533 2.145357 106 94 96
3.548709 -0.106412 2.083404 255 255 243
4.363413 0.785212 2.008269 244 217 210
4.469624 -0.902782 1.900926 86 83 76
3.695225 0.374256 2.093331 97 86 80
4.152987 0.630677 2.039334 254 255 245
3.805010 0.625774 2.085961 247 242 236
4.600512 0.152522 1.945673 255 253 250
4.859152 0.758644 1.919070 79 75 74
4.540837 -0.490810 1.925271 255 255 243
4.261797 0.945233 2.024072 75 70 67
4.642654 -0.046719 1.931575 102 98 97
4.122866 0.866445 2.049471 85 77 74
3.830915 0.168232 2.066593 69 60 63
3.761851 0.618322 2.089909 78 70 67
4.269381 -0.105952 1.990960 255 252 244
4.004240 -0.351332 2.014023 248 239 230
4.622788 -0.016918 1.940310 73 64 57
4.779127 -0.180709 1.898075 235 222 213
3.471111 0.057383 2.103879 247 250 241
5.029027 0.239540 1.874280 241 247 233
4.583346 -0.499526 1.922891 81 74 68
4.359189 0.462519 1.995760 215 197 185
3.883596 0.221948 2.061271 255 255 239
4.868534 -0.084745 1.890407 255 248 241
3.331902 0.043994 2.120718 70 64 64
4.966425 0.188589 1.882433 102 97 101
3.673002 0.623392 2.101717 248 237 231
3.444129 -0.348991 2.084327 248 234 233
4.487582 0.870247 1.989688 80 77 72
3.532496 -0.031579 2.096884 48 40 37
3.777349 0.371871 2.076274 247 230 222
3.333286 0.453335 2.142135 69 63 63
4.138752 -0.099169 2.013837 255 255 243
3.649485 -0.110695 2.078781 79 68 62
4.124484 -0.351678 1.997247 255 251 242
4.858842 0.740795 1.918793 69 63 63
4.669787 -0.090187 1.932430 255 254 244
3.963310 0.293119 2.043246 89 80 71
3.899237 0.942350 2.080125 103 102 98
3.335958 0.293400 2.129012 255 255 244
4.594952 0.549840 1.961229 85 76 71
3.481941 -0.347845 2.080563 255 255 244
3.666693 0.623425 2.103951 245 241 230
3.844885 0.377704 2.075067 95 88 82
4.845802 0.281553 1.909344 57 52 49
4.952908 0.151629 1.880817 90 86 83
4.471503 -0.491858 1.935224 236 235 231
4.656110 0.064172 1.941375 90 90 82
5.013401 0.239894 1.875078 255 251 241
3.489481 -0.106407 2.089503 249 246 237
5.072255 0.281001 1.862675 250 237 228
3.702817 -0.271140 2.063686 53 45 42
4.622632 -0.022507 1.936235 247 225 214
4.200404 0.377079 2.022536 244 229 222
4.819952 0.480382 1.917145 249 247 232
4.869716 -0.503029 1.865521 236 216 207
4.920797 0.391750 1.901302 92 83 78
5.037434 0.240069 1.878183 247 249 238
3.295047 0.612280 2.151329 94 85 80
3.385447 0.448080 2.128217 246 228 224
4.065580 0.353330 2.042574 245 230 225
4.059741 0.173971 2.039263 97 85 85
4.187305 -0.718051 1.964115 255 243 243
4.343150 -0.908412 1.926074 93 84 75
4.498386 -0.733864 1.916441 222 220 207
3.850394 -0.608797 2.019476 100 96 97
5.054412 0.644139 1.888218 255 255 250
4.556738 -0.261590 1.944846 59 48 44
4.946451 0.481403 1.899594 255 255 239
5.001740 0.556818 1.892765 54 50 47
4.887434 0.386196 1.902928 235 217 207
4.567087 -0.490217 1.919261 255 254 241
4.773465 0.799559 1.931954 238 235 226
4.023468 0.614919 2.051516 239 216 208
4.406030 0.878874 2.005785 221 221 213
5.069785 0.286725 1.866913 68 55 49
3.837305 -0.260106 2.037514 255 249 239
4.857456 0.069266 1.903274 101 97 86
4.531476 -0.581110 1.924928 76 65 61
3.904948 -0.180416 2.037678 253 246 240
4.535849 0.634889 1.969140 255 254 250
4.111519 -0.104837 2.019780 85 73 61
4.939115 0.318787 1.895155 229 232 221
4.832521 -0.662702 1.882189 93 85 82
3.746095 -0.501845 2.034119 255 253 246
4.905634 0.318536 1.897764 255 255 248
3.707634 -0.512453 2.049391 71 63 60
3.581439 0.217215 2.097052 255 238 228
4.265449 0.051169 2.001594 255 250 243
4.298908 -0.313781 1.975748 70 59 63
4.350590 -0.653875 1.938136 251 241 232
4.996480 0.640837 1.910119 71 62 63
5.069371 0.286520 1.866213 68 55 49
4.144636 -0.838452 1.962024 239 227 213
4.059741 0.173971 2.039263 97 85 85
4.834383 -0.017338 1.896527 255 245 238
4.957745 0.162355 1.884524 235 222 216
3.600305 0.858851 2.124470 67 58 59
3.892652 0.130478 2.052753 255 254 248
4.060790 0.864363 2.051542 90 77 71
3.833700 0.778403 2.081501 99 92 82
4.469624 -0.902782 1.900926 86 83 76
3.764429 0.301112 2.076512 245 242 233
3.549278 0.205460 2.100411 255 248 246
4.152601 -0.190742 2.004795 235 228 220
4.269889 0.868906 2.029179 69 56 50
3.414490 0.048560 2.111363 76 71 65
4.516620 -0.745386 1.916915 93 89 78
4.830260 0.236972 1.905202 255 250 244
4.892271 0.560402 1.910051 255 255 250
4.511617 -0.896892 1.903330 255 250 244
4.320773 0.547119 2.007015 71 67 58
4.034828 -0.346621 2.017056 81 73 62
3.315678 0.611554 2.149514 61 48 42
4.720402 0.317523 1.930986 250 247 242
4.984623 0.313322 1.882670 92 89 84
3.478132 0.451136 2.119987 211 194 184
4.515280 -0.489527 1.929320 225 207 195
3.986466 0.865736 2.072222 36 21 16
4.179139 -0.104100 2.009007 85 76 67
3.476976 0.049611 2.105551 87 80 74
4.814086 -0.415932 1.885241 79 74 68
3.894851 0.866722 2.087451 72 67 63
4.914279 -0.241936 1.866308 255 235 228
4.984623 0.313322 1.882670 92 89 84
4.585953 -0.571889 1.912934 254 247 231
4.006036 -0.017352 2.035491 253 240 232
3.390225 0.325758 2.123651 255 253 244
3.968707 -0.832797 1.987323 93 88 82
3.904570 -0.340896 2.028542 255 254 248
4.336109 0.716375 2.017742 255 254 244
4.934968 0.399164 1.900077 246 241 235
4.945032 -0.245425 1.872914 255 250 244
3.943484 0.050846 2.048669 49 35 32
4.067585 0.363466 2.044593 242 221 216
4.799394 0.399076 1.917475 246 251 244
4.736742 -0.006371 1.917090 255 255 244
3.483403 0.937533 2.145357 106 94 96
4.415031 0.635084 1.996738 254 255 249
4.648082 -0.505518 1.905850 240 237 230
4.293446 0.945742 2.017135 49 45 46
4.879638 -0.171363 1.882477 77 69 67
4.839776 -0.085384 1.891215 255 251 242
4.362347 0.230035 1.994143 234 221 215
3.553362 -0.424445 2.062027 255 233 223
4.406977 -0.733218 1.928226 224 211 202
4.747057 0.951472 1.944368 59 52 46
3.477232 0.617074 2.129277 76 65 61
4.057926 -0.586014 1.997622 65 54 52
4.614397 -0.331787 1.923448 255 252 245
4.218825 0.466820 2.030559 59 49 39
4.916240 0.640439 1.906393 255 255 246
4.709303 0.477700 1.937817 255 255 244
3.980317 0.788174 2.067837 243 240 231
4.747057 0.951472 1.944368 59 52 46
3.517603 -0.213822 2.087343 126 125 123
3.949790 -0.586941 2.009595 92 82 70
5.044482 0.079384 1.873509 229 226 217
4.487582 0.870247 1.989688 80 77 72
4.511392 0.791782 1.988054 75 68 58
4.773168 0.479533 1.925664 244 237 221
4.938935 0.474230 1.896243 87 82 79
4.686658 -0.086549 1.917251 250 236 223
3.875892 -0.580582 2.016354 255 255 239
4.740503 -0.427938 1.895103 95 86 89
4.512306 0.180545 1.962463 77 72 68
4.622788 -0.016918 1.940310 73 64 57
4.756630 0.384644 1.923561 229 212 204
4.060790 0.864363 2.051542 90 77 71
4.612594 -0.665289 1.914858 76 67 58
3.856888 0.539027 2.072208 60 51 46
3.517317 -0.372000 2.076781 253 253 245
4.349157 0.223358 1.997785 73 60 52
4.874314 -0.176341 1.885301 255 255 250
4.295419 -0.457300 1.966559 151 147 148
4.635195 -0.087986 1.938962 255 246 239
4.933461 0.636418 1.909546 88 73 68
4.877513 -0.012659 1.894998 73 68 65
4.406571 0.432467 1.989891 255 252 236
4.309503 -0.791795 1.941082 78 76 81
4.824926 0.547545 1.918774 226 203 195
4.094012 -0.751197 1.980394 82 77 73
4.732151 0.551776 1.943808 96 85 79
4.936676 0.480962 1.903255 255 255 241
4.743161 -0.287002 1.903079 108 106 107
3.975932 -0.025734 2.041899 71 63 61
4.572264 -0.412038 1.922603 255 250 248
4.746216 0.204903 1.922739 250 246 243
4.624236 0.436936 1.953871 64 58 60
4.638870 0.918290 1.964320 57 53 52
4.074717 0.493160 2.046068 84 79 83
4.903926 0.561746 1.909554 255 252 246
4.276315 -0.105385 1.989588 255 249 240
3.563189 -0.517938 2.057727 213 206 198
4.938935 0.474230 1.896243 87 82 79
3.588349 -0.423187 2.055791 255 251 241
4.861509 -0.243624 1.881179 255 250 241
4.993485 0.715795 1.898689 89 82 74
4.767168 0.951882 1.938845 65 61 60
4.618821 -0.571812 1.907146 255 253 245
3.552981 -0.184294 2.079501 236 225 221
4.160184 0.213871 2.023959 255 254 250
4.820799 -0.164884 1.892083 226 217 208
3.943797 0.390138 2.057137 246 221 217
3.833700 0.778403 2.081501 99 92 82
4.638239 0.909306 1.963038 64 58 62
3.843163 -0.109693 2.057098 87 77 68
3.443750 0.461128 2.121158 171 161 151
4.172972 0.257454 2.027153 59 47 47
4.833642 0.553299 1.918699 103 93 91
4.711860 -0.647969 1.883610 251 236 231
3.600305 0.858851 2.124470 67 58 59
4.771153 0.872477 1.940607 88 83 79
4.496964 0.950052 1.986073 59 58 56
4.368580 -0.815241 1.927481 255 247 237
4.806656 0.480590 1.918875 255 255 241
3.505363 -0.347682 2.077653 255 250 242
4.402774 0.428386 1.992338 55 46 49
5.076981 -0.079213 1.853644 247 232 225
4.075424 -0.611376 1.988880 118 116 119
4.742807 0.679385 1.938452 84 72 72
4.980696 -0.406617 1.856550 255 252 248
4.912370 0.480279 1.900222 255 253 238
3.532453 0.530624 2.112899 254 236 226
4.790031 -0.654099 1.885906 251 237 226
4.782708 -0.488974 1.884577 245 227 217
4.496606 -0.896064 1.902965 231 216 211
4.207167 -0.189968 1.996195 247 240 234
4.884442 0.317273 1.900084 255 255 247
3.768909 -0.341592 2.048052 255 255 245
3.783707 0.534187 2.085102 253 249 238
4.202315 -0.184040 2.000698 97 88 79
4.492020 -0.744578 1.918677 81 78 69
4.843968 -0.409189 1.883464 227 214 206
4.775129 -0.100635 1.906116 255 247 230
4.167513 0.138493 2.025872 100 87 81
4.965954 -0.001387 1.873904 244 241 236
5.038160 -0.085261 1.867621 255 253 245
5.066362 -0.244811 1.858628 255 253 240
4.075287 -0.603278 1.988531 70 69 67
4.635296 -0.230651 1.929060 67 65 68
4.808028 0.235004 1.912200 246 241 235
3.614548 0.351086 2.100362 61 41 53
4.271056 -0.174528 1.987902 250 242 239
4.320780 0.053375 1.988823 255 253 243
4.731073 0.551221 1.941360 96 85 79
3.614548 0.351086 2.100362 61 41 53
4.866561 0.722675 1.914846 255 253 254
4.492895 -0.344625 1.940621 255 251 237
3.443750 0.461128 2.121158 171 161 151
3.969118 -0.344925 2.026315 255 255 253
4.512082 0.338341 1.966761 72 56 56
4.401733 0.379721 1.984864 255 249 233
4.491658 0.058060 1.960524 222 203 196
3.601746 0.940706 2.124322 64 58 62
3.579025 -0.264475 2.073483 255 252 246
4.789277 0.147785 1.916232 83 79 76
4.812372 0.875209 1.935994 105 97 94
4.963994 0.509800 1.896729 36 30 32
3.609235 0.194893 2.093832 101 82 84
3.922814 -0.658867 2.000850 255 253 239
3.728190 -0.169277 2.058561 107 90 83
4.533236 -0.781731 1.912245 110 109 115
5.100398 0.403295 1.875492 252 253 247
4.018680 0.469220 2.052827 255 254 249
4.202315 -0.184040 2.000698 97 88 79
4.197254 -0.257780 1.994094 255 254 250
3.349174 0.447749 2.134319 234 228 214
4.778304 0.705387 1.926695 217 199 189
3.555026 0.206040 2.099127 255 251 245
3.956270 0.594921 2.065955 82 67 72
4.789277 0.147785 1.916232 83 79 76
4.736207 -0.580047 1.896771 81 73 62
4.404166 0.597083 1.996827 93 91 94
4.234307 -0.577603 1.966220 255 249 247
3.733706 0.647759 2.091684 235 222 216
4.743283 -0.296693 1.902652 132 128 129
4.863078 -0.526970 1.868103 79 73 75
4.636402 -0.654476 1.905071 242 233 226
3.481008 -0.106066 2.095251 255 255 250
4.879638 -0.171363 1.882477 77 69 67
3.524653 -0.265479 2.081732 255 248 246
3.726134 -0.519169 2.040627 247 223 213
4.639025 -0.660974 1.902162 75 72 57
4.820738 -0.007694 1.902152 255 255 246
4.398544 0.259701 1.990298 66 54 58
3.988645 -0.030337 2.035333 214 192 171
4.083866 -0.833601 1.979216 78 71 63
4.393446 0.270913 1.993260 255 255 246
3.871267 0.538315 2.075306 62 48 45
4.710984 0.072870 1.914742 255 255 250
4.077278 -0.297008 2.010315 255 255 251
4.432798 0.474789 1.987611 255 249 242
4.264721 -0.651915 1.948096 255 249 240
4.190037 -0.377842 1.984806 132 123 126
3.649235 0.857449 2.112604 82 73 76
4.458708 -0.093815 1.957234 255 255 251
3.279176 0.415151 2.144097 255 226 219
4.599446 -0.264993 1.930976 255 254 249
4.157709 0.298920 2.037800 63 53 41
3.834693 0.156495 2.059819 250 241 234
4.503860 0.378558 1.969110 208 185 167
3.820900 -0.339146 2.041199 255 254 248
4.141481 0.866388 2.048380 82 71 69
5.063159 0.243116 1.869234 255 255 243
3.772880 -0.268818 2.059471 67 56 54
4.468599 0.079539 1.965600 103 90 82
4.420395 -0.711192 1.927015 254 246 227
4.147081 -0.015316 2.014548 99 78 75
3.274817 0.229154 2.138432 65 59 61
4.017917 -0.509612 1.998184 247 233 224
3.497181 0.859662 2.142047 92 83 86
4.881169 0.230023 1.900386 90 82 79
3.972442 0.536460 2.057546 238 217 212
3.625123 -0.277285 2.073152 255 253 248
3.643296 0.452407 2.099057 255 240 233
3.908647 -0.760318 1.996838 226 224 209
4.845808 0.554412 1.919312 104 97 91
3.455668 0.219466 2.113741 112 94 90
4.792926 -0.648337 1.872685 255 248 242
4.278003 -0.090781 1.990452 255 249 243
3.762593 -0.032166 2.060381 248 234 221
4.688885 -0.409915 1.902957 255 247 242
3.737641 0.566836 2.089584 252 226 213
3.853422 -0.428995 2.032709 70 59 55
5.000437 0.239578 1.879441 255 255 243
3.403236 -0.307987 2.098546 246 246 236
4.310569 -0.760263 1.941722 112 114 113
4.983750 0.715402 1.901433 97 92 89
3.502592 0.237936 2.110402 99 91 89
4.993416 0.480269 1.883871 255 255 244
4.261797 0.945233 2.024072 75 70 67
4.546497 0.630639 1.978618 79 71 68
5.025970 0.072861 1.866645 60 57 52
4.987931 0.555938 1.891612 75 71 70
4.521921 0.056002 1.960223 255 254 250
4.863057 -0.086801 1.891485 241 242 236
3.995704 0.134897 2.044203 80 62 62
4.172972 0.257454 2.027153 59 47 47
4.218078 -0.422134 1.975104 63 56 46
3.574652 0.381833 2.108455 255 252 243
4.631332 0.589570 1.957284 70 68 71
4.963364 0.349769 1.887406 93 81 81
3.317812 0.447263 2.139885 225 212 204
3.401656 -0.346658 2.093861 244 246 235
4.499830 -0.676673 1.917056 255 255 239
3.674097 -0.113685 2.069196 235 218 211
4.516796 -0.095441 1.957926 240 245 241
4.321930 -0.654762 1.945961 245 231 222
4.957454 0.642145 1.899689 255 251 242
4.595778 0.711856 1.969536 82 75 69
4.749608 0.711339 1.939734 81 73 70
3.680285 -0.374443 2.051744 255 242 236
4.053513 0.865889 2.056252 67 57 56
4.747621 -0.409336 1.890691 250 229 224
4.080963 -0.297212 2.010583 101 99 102
4.873506 -0.243877 1.875031 255 247 242
3.867206 0.463719 2.062616 255 253 244
4.408437 0.603084 1.992308 235 219 204
4.364407 -0.271042 1.967358 222 213 204
5.030085 -0.340293 1.867195 242 235 227
3.873020 0.129801 2.054014 239 228 224
4.756042 -0.006094 1.914655 244 238 226
4.922341 0.479215 1.896614 255 255 243
4.301762 0.313159 2.006660 130 96 95
4.323660 -0.104053 1.986885 65 58 48
4.154108 -0.657381 1.973420 255 253 251
4.529135 -0.171448 1.947652 255 251 245
4.564317 0.080948 1.949854 121 99 102
4.608137 -0.650214 1.900744 219 211 208
4.606660 0.291901 1.951075 251 248 229
4.840240 -0.016906 1.894753 224 202 189
3.866562 -0.348962 2.042711 88 80 77
5.019094 0.081636 1.866414 233 226 218
4.188961 -0.219659 1.997536 255 247 247
4.230140 -0.027356 2.001658 255 244 234
5.075363 0.264618 1.874083 64 53 59
3.950071 0.048762 2.041429 244 225 219
4.951013 0.794571 1.903171 99 86 80
4.815367 -0.166207 1.894400 255 252 244
3.581479 0.381426 2.103104 251 244 236
4.747622 0.810769 1.946613 74 55 61
3.709214 0.287088 2.084085 255 249 244
4.502877 -0.344047 1.937563 255 250 235
3.847825 0.627031 2.077134 227 228 214
4.642301 -0.849272 1.885685 19 19 21
3.502737 0.249831 2.111053 109 98 104
4.957929 0.483480 1.895420 244 241 232
4.755810 -0.809966 1.866755 227 226 222
3.806574 0.615197 2.082018 242 219 213
4.464810 0.950130 1.994234 84 80 77
4.235615 -0.819165 1.947727 255 255 241
4.062107 -0.105502 2.028158 82 72 63
4.376058 0.542576 1.994957 245 218 211
3.611571 0.340569 2.101260 243 234 229
4.033899 0.869988 2.056963 251 244 238
4.940356 0.071345 1.887461 86 79 73
3.631488 0.628231 2.109536 255 246 247
4.842370 -0.655064 1.879556 255 253 247
4.918351 0.634062 1.903115 66 58 56
4.883293 -0.330975 1.884701 255 254 247
4.767846 0.478335 1.928924 254 253 248
4.584097 0.870045 1.968918 80 74 74
4.615261 -0.667932 1.921525 76 67 58
4.861881 0.928177 1.923962 67 63 64
4.065275 0.162476 2.037904 243 220 204
4.968096 -0.123564 1.870865 117 117 115
4.848527 0.148310 1.906216 108 94 94
4.933163 -0.003168 1.880413 255 253 243
4.579500 -0.073994 1.942734 117 89 85
4.644221 0.392062 1.960152 88 81 73
4.010178 0.308634 2.048744 131 112 105
4.931717 0.238276 1.891799 255 254 237
4.538414 -0.750692 1.906796 232 228 216
3.514512 0.704331 2.125934 228 224 221
4.401921 0.474620 1.994316 255 246 244
3.517481 -0.229819 2.084511 110 108 111
4.714982 -0.504207 1.891754 255 241 232
5.089747 -0.170922 1.855953 84 70 69
4.535441 -0.093247 1.951897 255 254 249
4.851134 0.405941 1.913972 80 71 72
3.847229 -0.462130 2.028777 56 49 56
4.817714 -0.173864 1.901463 55 48 40
3.609146 0.302047 2.097463 255 252 243
4.349607 -0.752945 1.931893 247 244 235
5.075363 0.264618 1.874083 64 53 59
4.564854 0.877103 1.974149 224 229 223
3.850336 -0.655860 2.018155 61 61 63
4.298117 0.148366 2.000578 252 241 237
4.852924 0.741087 1.916661 255 250 235
3.960443 0.118259 2.048835 96 86 87
3.664191 0.128564 2.080409 242 231 225
3.898815 -0.031948 2.045203 255 245 236
4.292754 0.676124 2.016267 234 229 223
3.502898 0.244325 2.109521 85 72 81
3.615410 0.133182 2.097109 76 69 63
5.009745 0.068301 1.865270 209 188 171
3.520054 -0.058790 2.093414 255 251 239
3.901014 0.131156 2.051226 214 203 201
3.996354 -0.834701 1.992002 82 76 64
4.648428 -0.569370 1.897041 255 253 246
4.191485 -0.721392 1.963619 69 61 74
4.757972 -0.094727 1.903658 64 54 52
3.931806 -0.263489 2.034692 255 248 239
3.587391 0.056936 2.089855 255 253 248
4.762044 0.788325 1.933905 211 192 188
3.930938 0.132061 2.050508 210 188 177
4.735761 0.479572 1.933382 242 237 231
4.746472 -0.431704 1.896950 247 244 235
3.853432 -0.429321 2.033479 70 59 55
3.503762 0.244464 2.110183 55 38 46
5.025277 0.239838 1.881979 255 255 244
4.549603 0.468019 1.950750 67 60 54
4.823465 0.795161 1.928437 79 76 67
4.993710 0.148028 1.872154 243 224 218
5.082898 -0.218388 1.847452 131 123 121
4.207177 0.295019 2.020237 243 232 226
3.994361 0.049190 2.035449 229 209 202
4.010178 0.308634 2.048744 131 112 105
4.865069 0.950909 1.931499 61 57 58
4.088586 0.794262 2.053501 73 64 67
3.979298 -0.348505 2.024167 89 84 78
3.731228 -0.423682 2.046556 255 251 244
4.887226 0.071116 1.895491 86 83 74
3.517761 0.530056 2.115078 248 225 219
4.698694 -0.489147 1.899706 255 254 246
3.571172 0.860575 2.133271 52 43 46
4.510376 -0.263286 1.950447 29 15 14
4.759565 0.707129 1.932536 225 211 202
3.960443 0.118259 2.048835 96 86 87
4.062392 0.548292 2.047797 246 248 237
4.639913 -0.730488 1.892385 255 255 246
4.760138 0.478257 1.926781 255 252 234
4.808614 0.640808 1.924663 99 79 81
4.403285 0.428429 1.994587 55 46 49
4.134102 0.132716 2.025623 253 227 214
3.794517 0.047415 2.059527 255 252 242
4.675479 0.071761 1.933143 254 255 249
3.366022 0.697015 2.151298 66 55 59
4.438643 -0.419334 1.952234 73 70 65
5.071662 0.564784 1.878175 232 233 228
4.177680 0.051318 2.012882 250 227 219
4.650853 0.550103 1.954308 86 75 73
4.510558 -0.263452 1.952018 29 15 14
4.272406 0.548016 2.022921 95 86 77
4.806186 -0.489322 1.881907 255 253 246
4.388388 -0.653577 1.934966 255 250 244
5.057736 0.645634 1.893547 255 253 249
5.075349 0.307027 1.864575 230 224 210
3.697396 -0.344603 2.054469 255 255 248
4.860472 -0.065210 1.890168 62 31 37
3.555115 -0.035232 2.092100 94 80 77
5.000022 0.642133 1.893778 234 230 227
3.953301 0.422123 2.062584 73 57 60
3.514145 -0.264283 2.084329 230 236 222
4.496940 0.388026 1.977779 103 97 85
3.831012 0.187231 2.066890 59 47 51
4.462881 0.715632 1.991882 255 253 244
4.891640 -0.096509 1.885024 255 253 237
3.943517 0.707651 2.068547 250 235 230
4.646602 -0.182610 1.924346 251 248 241
4.115131 0.620379 2.040231 238 219 215
4.963416 -0.485240 1.854982 224 221 216
3.975320 -0.826455 1.993225 255 254 248
4.322094 -0.758261 1.938543 220 211 204
4.266246 0.227895 2.009013 255 255 243
3.826605 0.615511 2.079054 222 199 193
4.846514 -0.093769 1.901012 76 69 63
3.732131 0.270064 2.079424 255 238 228
3.410547 0.449696 2.127563 229 211 207
3.963552 -0.530704 2.008714 63 51 55
3.384910 0.323205 2.126568 255 252 244
4.167003 -0.821421 1.960396 255 255 246
4.065339 -0.666187 1.984755 75 71 62
4.638717 -0.398218 1.915589 140 139 137
4.638503 -0.263043 1.920034 237 216 211
3.842548 -0.483170 2.027608 255 255 240
4.774851 -0.166391 1.901310 255 254 246
4.190112 0.732548 2.035769 112 112 112
3.409152 0.052096 2.115975 197 196 191
3.853035 0.546193 2.078840 246 243 236
4.075188 -0.620507 1.986614 109 107 108
3.391857 0.609913 2.137656 241 226 219
5.059134 -0.490557 1.854955 245 246 241
3.863363 -0.661742 2.009555 255 248 239
4.366166 -0.653862 1.936089 249 239 230
4.201599 -0.574794 1.966010 247 229 227
3.517882 -0.379023 2.074982 233 234 228
3.472215 -0.108739 2.102135 247 242 238
4.498775 -0.491785 1.928958 255 250 247
3.456915 0.382832 2.118393 255 252 246
5.014640 0.482232 1.891231 255 255 246
4.249239 0.461385 2.016546 239 230 225
4.520075 -0.022177 1.951967 255 253 244
4.636189 -0.368074 1.917658 81 67 67
4.692357 0.064687 1.930992 86 83 78
4.195331 -0.512182 1.976540 213 196 188
4.042645 0.137204 2.038666 87 73 70
4.630638 -0.410148 1.920281 214 204 195
4.607907 -0.571569 1.906762 255 253 243
3.461496 0.702192 2.134074 246 242 233
4.657250 -0.572654 1.904030 253 247 235
4.271432 0.871343 2.036504 69 56 50
3.875034 -0.753413 2.012739 87 83 74
4.515895 0.354738 1.967675 255 251 236
4.272733 -0.105553 1.990811 255 252 243
3.749091 0.931165 2.104287 190 172 158
4.851061 0.405947 1.913802 80 71 72
4.557129 -0.491664 1.923702 255 250 236
4.875466 0.713418 1.917638 87 74 68
4.639398 -0.668212 1.894203 225 213 201
4.637509 -0.831764 1.887473 234 237 230
4.395047 -0.744902 1.929808 84 81 74
4.013358 -0.824413 1.986466 255 253 237
4.397583 0.609499 1.997635 210 220 222
5.069333 0.403008 1.872710 246 245 240
3.278652 0.410424 2.144313 255 246 243
4.759740 -0.007152 1.911142 249 246 231
3.861163 0.535252 2.074256 228 211 201
3.836883 -0.659724 2.012785 255 251 239
3.519513 -0.396505 2.073597 252 249 244
4.859843 0.633010 1.919230 80 72 69
3.256807 0.133234 2.137781 255 255 241
4.118291 0.944852 2.048604 104 88 88
4.856527 -0.405535 1.877425 255 253 247
3.835977 -0.337910 2.032194 255 251 245
4.835114 0.795145 1.926539 85 76 71
3.508535 0.397437 2.111251 242 218 214
3.974940 0.128980 2.044453 255 250 243
4.309244 -0.813084 1.937707 94 96 95
5.074544 0.314147 1.872732 74 68 68
4.402509 0.577590 1.990486 79 79 79
4.299132 -0.329473 1.974488 119 113 115
4.395047 -0.744902 1.929808 84 81 74
4.326329 -0.509234 1.955680 255 247 238
4.413467 0.743866 1.999553 88 77 81
4.864573 0.629068 1.913397 248 220 206
4.357824 -0.187977 1.972168 242 222 215
4.343217 0.796865 2.018541 248 248 240
4.877173 0.473887 1.910115 99 99 97
4.431215 -0.737970 1.928458 255 250 244
3.770208 0.492443 2.081255 106 95 89
4.844724 0.271785 1.906936 64 55 58
4.466171 -0.744214 1.919847 80 81 75
4.141481 0.866388 2.048380 82 71 69
4.680350 0.306938 1.937047 72 63 58
4.733006 -0.831145 1.876422 255 253 243
4.209908 -0.176455 1.998283 255 255 246
4.027841 -0.740802 1.989101 255 253 250
4.771496 0.237709 1.917361 153 116 110
5.086369 -0.041152 1.854261 79 73 73
4.645474 -0.862418 1.889288 86 88 87
4.465746 -0.183950 1.953055 255 247 240
4.643483 -0.650807 1.895356 253 243 234
4.504869 0.954304 1.993145 88 89 83
4.835057 -0.178613 1.891151 219 213 199
4.036561 -0.833820 1.982064 82 79 62
4.063967 0.324914 2.044231 33 20 27
3.890774 0.132689 2.057840 52 42 40
4.781350 0.954955 1.946384 64 55 50
3.575382 0.383950 2.108139 121 91 89
4.152939 0.867835 2.050357 81 71 69
4.153041 0.163575 2.023898 125 114 112
4.584097 0.870045 1.968918 80 74 74
4.691700 0.058986 1.927783 255 253 241
4.172522 0.285360 2.027539 82 74 71
4.643979 -0.570254 1.901747 255 253 248
5.066004 0.557964 1.880892 88 87 85
3.616617 0.216794 2.097256 254 249 243
4.954124 0.637103 1.903973 92 87 83
4.971793 -0.103085 1.877320 117 117 117
3.850745 0.384567 2.070767 255 254 246
4.066710 0.457445 2.045006 214 204 194
4.687764 -0.251815 1.918080 246 229 222
5.079315 -0.243488 1.860124 246 218 204
4.756490 0.794285 1.945036 63 53 52
3.846697 -0.338966 2.038724 255 253 247
3.958577 0.239449 2.049853 232 203 195
3.827014 0.170138 2.066223 255 253 247
4.793319 -0.657943 1.886362 56 45 39
4.604969 0.708018 1.958617 42 22 23
4.643693 0.138539 1.939486 239 219 212
4.049973 -0.179572 2.023579 252 247 241
4.442054 -0.654459 1.928836 255 253 243
3.849411 0.682054 2.078893 82 72 81
4.743201 0.876334 1.944314 235 237 236
3.929781 0.211152 2.054679 245 223 212
4.961804 -0.495189 1.857221 100 92 90
4.415937 -0.891437 1.917627 76 73 80
5.074291 0.306852 1.862647 230 224 210
4.152939 0.867835 2.050357 81 71 69
4.095801 0.054938 2.030012 73 66 58
4.759906 -0.567226 1.880623 233 223 213
3.744541 0.050549 2.071017 95 88 82
3.691192 -0.346465 2.058959 255 254 244
3.604299 0.165707 2.095672 255 255 241
3.936110 -0.420685 2.020359 253 233 224
4.364679 -0.752545 1.930841 255 248 240
4.529155 -0.628786 1.916197 255 255 253
5.084881 0.403974 1.878767 235 231 228
3.413154 0.694354 2.138649 68 53 56
4.190387 0.923574 2.043321 61 62 64
4.812679 -0.017676 1.902366 255 249 236
3.515954 -0.075191 2.098047 129 129 129
4.732256 0.304469 1.930211 255 229 226
5.049405 -0.330332 1.864358 247 246 242
4.193601 0.392873 2.023314 138 117 116
3.596528 0.864683 2.126554 121 120 118
3.381176 0.184353 2.120364 71 67 66
5.040005 0.641820 1.884525 245 255 242
3.725013 0.262022 2.081486 243 240 233
4.750427 -0.167180 1.907766 255 251 243
4.075188 -0.620507 1.986614 109 107 108
4.978136 0.563656 1.906147 255 255 250
4.970882 -0.093317 1.875425 86 85 83
4.757785 0.953492 1.945527 58 54 51
4.563861 0.748148 1.967994 255 251 242
3.849411 0.682054 2.078893 82 72 81
4.760946 -0.418224 1.890562 80 72 69
4.614573 -0.410596 1.919352 248 237 235
4.737196 0.492692 1.934339 255 250 235
3.897079 -0.431766 2.022670 239 237 225
3.683146 -0.032317 2.076770 234 221 215
4.969066 -0.102259 1.872757 117 117 117
4.141961 0.494765 2.031325 140 115 111
4.378079 0.137461 1.983815 249 237 225
4.535183 0.747854 1.975478 255 250 243
4.856313 -0.204362 1.886614 132 131 129
4.518880 0.492168 1.974997 64 63 61
4.463887 0.150865 1.971527 254 254 252
3.604330 0.536044 2.109701 92 87 83
3.807794 0.059836 2.059436 255 251 245
4.520373 0.170307 1.961884 254 251 236
4.858862 -0.062751 1.892799 250 226 222
4.790257 0.793647 1.931832 88 83 80
4.656422 -0.504348 1.904168 96 86 77
4.477237 0.716449 1.989497 255 251 247
4.754433 0.802188 1.943729 206 197 190
4.787167 -0.339480 1.887658 255 254 244
4.957272 0.181813 1.881209 255 254 249
4.871147 0.148193 1.904002 105 85 84
3.965058 -0.202099 2.033089 97 91 91
4.594323 -0.649337 1.903047 236 228 225
3.945743 -0.498739 2.008078 245 240 234
4.389765 0.542815 1.992784 255 249 242
4.114303 -0.416620 1.990020 255 253 251
4.280002 0.704577 2.020407 92 86 74
4.951329 0.393656 1.898150 75 71 72
4.431656 0.868866 1.997541 94 86 84
5.085239 -0.040698 1.852407 79 73 73
4.784225 0.871019 1.931995 79 71 69
4.863325 -0.352641 1.878482 102 100 101
3.615118 0.317365 2.097360 57 37 46
4.280334 0.623679 2.012356 255 237 232
4.723503 -0.576910 1.890039 88 77 71
4.853402 0.713626 1.918866 90 80 78
4.396841 0.459739 1.995586 255 253 238
3.951893 0.441856 2.061993 50 39 43
4.350019 -0.818428 1.929299 255 249 241
3.843597 0.327640 2.069782 255 248 241
3.347645 0.528883 2.137183 244 231 223
4.238467 0.461671 2.021648 233 218 211
3.422223 0.215412 2.118092 255 255 244
3.937800 -0.496186 2.008757 114 99 94
4.749952 -0.257259 1.912832 83 74 69
4.576726 0.800660 1.973122 137 117 110
4.535590 0.705184 1.971541 230 210 203
3.733706 0.647759 2.091684 235 222 216
4.247300 0.379995 2.015958 228 219 214
4.289940 0.876065 2.028312 254 255 241
4.625843 0.234679 1.949439 245 245 237
3.856722 0.460508 2.082331 84 77 67
4.509024 0.358132 1.972463 255 251 246
4.272814 -0.830331 1.933727 243 229 220
3.827729 0.160713 2.067447 255 252 246
4.525859 -0.606627 1.920580 95 95 95
3.716097 0.615683 2.094554 250 242 240
4.044095 0.537700 2.050205 241 234 224
4.871913 0.147957 1.905431 105 85 84
4.723503 -0.576910 1.890039 88 77 71
3.355693 0.448653 2.134053 255 251 245
4.454239 -0.414181 1.946520 255 255 244
4.185697 -0.738134 1.963932 244 229 224
4.624692 0.273923 1.947754 214 204 195
4.903511 0.070900 1.893187 108 105 98
4.977501 -0.164452 1.869748 255 253 248
3.635539 -0.305720 2.065282 252 249 244
3.718032 -0.170560 2.059645 119 96 90
4.733512 0.472082 1.935702 86 75 69
4.963656 0.500405 1.894616 96 92 91
3.590537 0.865449 2.131745 134 133 131
4.849596 0.453652 1.909822 113 103 102
4.357482 -0.573645 1.942468 255 252 250
4.976123 0.071033 1.881487 80 75 71
4.192063 -0.862552 1.949718 46 35 43
3.520059 -0.405320 2.073633 254 248 250
5.081431 0.448928 1.883610 69 54 59
4.972203 -0.324588 1.858221 255 255 250
4.676448 0.059211 1.930263 255 249 239
3.818058 0.616119 2.081908 226 202 198
4.149482 -0.108067 2.010207 255 241 234
3.675037 -0.583941 2.038257 226 207 201
3.628014 0.479395 2.103378 255 242 239
3.614973 0.317325 2.098744 57 37 46
4.782248 0.788542 1.928895 245 226 219
4.621795 -0.339399 1.926043 113 103 94
4.528050 -0.750131 1.912888 241 247 245
4.839358 0.720191 1.921310 247 237 225
3.628410 0.628931 2.112058 61 48 55
5.011274 -0.329835 1.868693 251 243 240
4.414804 0.910018 2.002188 69 63 65
3.384028 0.337257 2.128969 252 237 230
3.883305 0.868644 2.093556 67 67 59
4.867549 -0.408831 1.880533 223 222 218
3.957209 0.552225 2.064110 55 53 54
3.870204 0.858543 2.081253 254 245 236
4.391034 0.292330 1.987806 222 222 220
4.755597 0.632968 1.937138 84 74 72
3.571172 0.860575 2.133271 52 43 46
4.103084 -0.351068 1.999665 253 243 234
4.101582 -0.738961 1.970492 253 248 242
4.012200 -0.579729 1.996400 255 250 243
4.041920 0.468863 2.050246 238 229 222
3.576349 0.864378 2.123355 239 234 230
4.615566 -0.265035 1.928603 255 255 246
4.153313 0.877091 2.040408 139 122 115
3.850875 0.496557 2.077450 49 40 43
4.850194 0.433271 1.909621 105 95 96
3.554077 0.938435 2.127874 69 60 61
4.400802 -0.908071 1.919980 87 83 71
3.981495 -0.747322 1.987889 71 64 54
3.807350 -0.580770 2.019655 255 248 241
4.733512 0.472082 1.935702 86 75 69
3.669245 0.532925 2.100928 218 205 197
3.738966 0.757438 2.098858 232 232 222
4.413497 0.755197 2.000138 89 83 83
4.466171 -0.744214 1.919847 80 81 75
5.036194 0.638080 1.888239 73 61 61
4.542958 0.139197 1.956183 232 209 203
4.818871 0.229764 1.900481 78 69 62
4.478518 -0.022721 1.960030 255 254 242
4.752824 0.058105 1.911584 255 254 241
4.899852 0.721018 1.910970 253 243 234
4.055756 0.176603 2.042899 255 255 250
4.168891 0.480679 2.029029 254 235 231
4.754351 -0.103944 1.909572 255 254 235
3.812611 -0.336023 2.040254 117 106 102
3.621754 0.020410 2.086349 91 85 87
3.400199 0.694142 2.146920 98 76 78
3.968098 -0.704447 1.993899 72 70 71
4.744422 0.226741 1.928622 115 102 94
4.416049 -0.705480 1.930654 110 106 107
4.626618 0.789391 1.960922 109 100 95
4.400603 0.543934 1.992367 255 251 242
4.291365 0.635384 2.018374 250 251 237
3.810538 0.624416 2.081409 255 255 246
3.738157 0.299477 2.082774 255 254 245
3.750260 0.371613 2.082159 241 222 216
4.742807 0.827859 1.944746 250 230 221
4.956636 -0.253912 1.875575 92 81 75
4.644361 0.787044 1.959362 220 200 191
4.414312 -0.380261 1.955743 86 85 83
4.960206 -0.491865 1.870554 248 243 240
3.849174 -0.758954 2.012679 240 245 238
3.947556 -0.578940 2.003558 255 248 244
3.784967 0.450128 2.081176 131 113 103
3.784762 0.452140 2.080682 235 220 213
3.719475 0.863644 2.102676 226 229 212
4.124015 0.450774 2.035408 148 119 113
4.635479 -0.235354 1.928518 95 95 97
4.423304 -0.735461 1.927680 240 227 218
4.172522 0.285360 2.027539 82 74 71
4.731468 0.318522 1.931605 244 245 240
4.741059 -0.449816 1.894934 94 83 87
4.222764 -0.175897 1.995424 255 254 248
4.125402 -0.191200 2.009326 255 248 241
4.562541 -0.491242 1.919890 255 254 239
4.634524 0.058466 1.935277 255 239 237
4.199486 0.944768 2.034606 84 73 79
4.996874 0.080196 1.874239 232 229 224
4.589773 -0.021071 1.941791 241 216 211
4.949925 0.556848 1.902103 45 40 36
4.522648 -0.269334 1.939583 241 228 220
4.639266 -0.179580 1.935684 76 67 60
3.517387 0.692034 2.124327 254 229 224
4.953807 0.636963 1.903299 92 87 83
3.451841 -0.357649 2.084530 213 206 196
4.635831 -0.374833 1.916353 93 82 88
3.622253 0.002249 2.085829 108 104 105
4.971665 0.481459 1.894236 236 237 229
3.628046 0.641319 2.110393 85 70 77
3.499681 0.224967 2.110704 255 255 253
3.314898 0.691854 2.154544 216 199 191
4.100925 0.459265 2.040466 225 208 198
3.629048 0.474949 2.102382 247 223 219
4.167303 0.291617 2.033779 255 250 236
3.830986 0.160306 2.065742 70 58 60
3.621932 0.211973 2.099034 73 62 58
3.682650 0.369944 2.091120 251 236 231
4.306313 0.472220 2.003774 255 251 244
4.070723 -0.639427 1.986572 255 252 247
3.390518 0.351231 2.124888 255 255 244
4.783735 0.559620 1.933905 250 250 242
4.007227 0.947019 2.071057 72 62 61
3.649194 0.625216 2.103900 136 107 103
4.141900 0.134046 2.026487 255 234 226
4.836286 -0.166173 1.894975 247 239 236
4.275535 -0.103430 1.990913 57 48 41
4.655561 0.060624 1.938844 62 54 52
4.126821 0.629336 2.032364 238 230 219
3.629236 -0.318640 2.069122 71 70 68
4.195486 -0.658213 1.968950 255 253 250
4.739970 0.320838 1.928270 255 252 255
4.860456 0.728926 1.920874 94 73 72
4.529286 -0.600855 1.919358 255 255 251
3.808397 0.127715 2.061219 213 209 200
