ply
            format ascii 1.0
            element vertex 88111
            property float x
            property float y
            property float z
            property uchar red
            property uchar green
            property uchar blue
            end_header
4.315001 0.375323 2.002726 255 252 239
3.901041 0.779126 2.071553 131 106 102
3.185986 -0.285926 2.124059 71 67 68
3.522474 0.787400 2.120902 255 251 241
3.716846 0.434903 2.093121 255 252 236
3.725112 0.394711 2.091727 91 82 83
4.165679 -0.494623 1.986467 102 93 84
4.510712 -0.122046 1.955428 70 56 56
3.480484 -0.184631 2.101634 255 252 244
3.983644 0.851330 2.061586 32 25 17
4.064880 0.210834 2.031416 224 210 201
4.010592 0.858218 2.056827 255 255 246
3.936447 0.224373 2.055924 162 129 124
4.149966 0.134859 2.014990 235 222 214
3.928839 0.776231 2.066706 255 254 248
4.020339 0.778277 2.061464 235 231 222
4.057867 0.146204 2.039814 255 252 237
3.646640 0.925028 2.105459 45 44 42
3.958822 0.917994 2.066209 54 40 55
3.339221 0.775234 2.139835 255 239 223
3.968967 -0.053657 2.038274 251 231 207
4.384117 -0.483541 1.946060 255 254 248
3.187082 -0.279229 2.133063 72 71 69
3.855101 -0.289120 2.040253 255 252 245
3.647414 -0.031612 2.077440 251 232 228
4.068472 -0.619192 1.985379 108 106 109
4.451446 0.152484 1.973454 116 115 113
3.847650 -0.140418 2.050444 87 82 86
3.996154 -0.002697 2.033164 255 251 246
4.149699 0.345532 2.027896 255 243 239
4.453493 0.079634 1.968753 255 249 245
3.599691 0.685466 2.110371 249 239 230
3.972344 0.130684 2.046441 255 251 241
4.073229 0.536426 2.051089 90 77 71
4.367898 0.468647 1.992572 254 255 250
3.389909 0.602077 2.129550 223 210 204
3.492609 0.379628 2.116227 114 99 92
4.498280 0.505610 1.972146 253 254 255
3.760094 0.044511 2.075603 137 119 109
4.003527 0.252976 2.046713 255 251 240
3.498323 0.406733 2.118288 254 246 243
4.181872 -0.379066 1.983394 106 98 96
4.189428 0.721217 2.029816 93 78 71
3.482538 0.455550 2.116408 255 255 244
4.109403 0.231999 2.024455 94 72 61
3.517792 -0.245417 2.083772 102 93 96
3.948774 -0.024309 2.047655 70 59 55
3.636616 -0.178163 2.075656 253 245 234
3.537915 0.525303 2.109670 244 225 219
3.934489 0.209917 2.057258 242 222 213
4.463112 0.235949 1.972989 96 86 85
4.411677 0.865697 2.000967 123 108 105
3.982530 0.857149 2.065038 43 40 33
4.284317 -0.340362 1.976239 255 255 248
4.518054 0.699500 1.979017 82 67 60
4.304473 0.148078 1.989610 255 255 250
3.624323 -0.292236 2.075818 255 255 246
4.284918 -0.428728 1.968541 73 69 66
3.969342 -0.068934 2.036965 76 57 50
3.603137 -0.576538 2.051100 253 240 234
4.149699 0.345532 2.027896 255 243 239
3.847162 0.503881 2.080383 56 44 44
4.045681 0.134089 2.035278 52 43 36
4.469342 -0.019340 1.953393 246 236 227
3.294684 -0.364699 2.105481 247 234 225
3.072684 -0.226050 2.137421 245 243 231
3.295146 -0.232907 2.110891 69 60 63
3.845850 0.040080 2.061396 65 55 56
4.299363 -0.576706 1.952395 216 209 201
3.030985 0.209265 2.154995 242 235 225
3.834719 0.287598 2.070467 245 212 205
3.352126 0.522618 2.129960 250 241 236
3.440867 0.363587 2.120141 64 57 49
3.274139 0.252681 2.134336 246 242 239
4.405832 -0.177184 1.973073 92 89 84
3.518508 -0.199169 2.087317 112 108 109
3.198965 0.131648 2.131346 255 254 245
3.958822 0.917994 2.066209 54 40 55
3.394015 -0.628860 2.074955 240 212 200
4.645352 -0.177532 1.928891 255 255 248
3.508845 0.559766 2.118668 234 230 219
4.069756 -0.502340 1.992440 255 250 240
3.627420 -0.275405 2.076817 97 94 89
3.412911 -0.184203 2.100780 255 251 246
4.106994 0.534480 2.033251 25 18 8
3.356286 0.054314 2.116645 96 97 91
4.394211 -0.329938 1.963149 254 255 253
4.331973 0.856498 2.021446 97 97 89
4.107503 0.212880 2.031281 217 214 207
3.398984 -0.269143 2.103136 237 238 230
4.509634 -0.096656 1.950442 66 60 60
4.115456 0.931238 2.046876 77 64 55
3.183578 -0.174462 2.127352 95 89 89
4.058996 0.145232 2.031045 255 249 239
4.505172 0.671147 1.976940 93 78 81
3.165950 0.313370 2.150204 81 66 69
3.700392 0.131803 2.093421 85 80 77
3.625875 -0.321762 2.072216 255 254 245
3.982835 0.930120 2.064689 67 61 61
3.701015 0.926960 2.103972 54 50 47
4.074913 0.040768 2.020285 238 223 218
3.302023 0.042290 2.123208 34 24 25
3.273721 0.258972 2.133270 253 252 248
3.195021 0.278754 2.141905 230 213 206
3.296569 0.054243 2.125510 224 225 217
3.273913 0.226669 2.134067 242 239 230
3.650628 -0.654900 2.038822 233 218 211
3.931865 0.609906 2.065658 204 192 178
4.353915 0.627415 1.999216 129 101 97
4.594078 0.142342 1.947652 251 247 236
3.299447 -0.197741 2.111593 80 77 72
4.190960 -0.654888 1.974359 81 76 72
4.592388 0.289474 1.956466 252 247 227
3.046928 0.238945 2.159607 241 225 212
3.711085 -0.664296 2.027182 81 66 61
3.333813 0.055318 2.126518 255 253 242
4.024777 0.452465 2.049494 219 207 195
4.505089 0.940159 1.997272 74 63 67
4.201552 0.070250 2.000311 254 227 220
3.734886 -0.039766 2.074161 112 108 107
4.558959 -0.074741 1.946771 103 78 73
3.374510 -0.086025 2.109449 126 107 100
3.908244 0.717026 2.069582 115 87 84
3.396975 0.639077 2.131864 255 251 240
3.218202 0.134332 2.132057 125 112 104
3.430026 0.918445 2.122000 57 52 49
3.846775 -0.188332 2.049952 255 254 243
3.409288 -0.336052 2.093675 70 55 62
3.808641 0.608458 2.080018 181 160 155
4.138015 -0.565397 1.977032 255 252 243
3.422261 0.122820 2.117527 226 203 197
3.732780 -0.546558 2.039178 241 239 227
4.129691 0.231464 2.024661 135 109 96
3.704984 0.449598 2.095882 210 203 193
4.282262 0.481110 2.012847 251 255 255
4.179359 0.718137 2.032475 102 101 99
4.390134 0.599401 1.993962 104 102 103
3.619118 0.362066 2.100977 237 218 211
4.400654 0.542399 1.996535 75 66 59
4.399837 0.118039 1.977596 72 72 72
3.968991 -0.068901 2.035006 76 57 50
4.407319 -0.495824 1.952807 93 86 80
3.334878 0.157253 2.124423 255 248 244
3.738973 -0.579744 2.035990 64 57 51
3.404627 -0.334543 2.100482 244 239 233
3.498243 0.283856 2.114756 255 253 248
4.500787 -0.309999 1.944441 255 251 226
3.981893 0.253209 2.049483 120 106 95
4.202685 -0.344427 1.986005 229 219 210
4.115225 0.433624 2.034072 255 235 226
3.935168 0.530918 2.064071 255 233 225
3.388455 0.356200 2.125632 57 53 54
4.516999 0.469865 1.964466 255 252 238
4.571771 0.221698 1.954545 255 245 242
3.176301 0.640394 2.155810 245 246 240
3.648904 0.850679 2.112116 216 215 210
3.195419 -0.270844 2.130167 255 253 242
3.627091 0.854575 2.116219 255 248 245
4.507141 0.646634 1.979152 102 87 90
3.658743 0.369415 2.101044 44 35 30
4.506068 0.139351 1.957979 244 237 231
4.627536 0.144616 1.948215 96 85 83
4.178772 -0.543418 1.974560 81 68 75
3.183251 0.294636 2.138076 135 105 103
3.280765 0.272435 2.133033 252 243 228
4.605413 0.861002 1.977896 85 81 80
3.673078 -0.189193 2.067459 252 234 224
4.518275 0.775294 1.980501 219 200 194
4.370813 0.097950 1.982067 109 87 76
3.973985 -0.341859 2.024610 85 76 71
4.095868 -0.343227 1.998402 254 242 230
3.657090 -0.665216 2.032441 255 255 239
4.306186 -0.417949 1.962387 255 245 231
4.414506 0.778517 2.003073 77 69 66
3.811050 -0.582313 2.022490 249 236 227
4.123073 0.213253 2.030854 255 250 246
3.511400 0.588774 2.121713 28 17 21
3.841956 0.460355 2.073470 239 236 227
4.081444 0.845516 2.055161 74 64 63
4.066503 0.930750 2.053418 74 64 65
3.981946 0.253219 2.049682 120 106 95
4.667898 0.857722 1.962887 253 246 240
4.374552 0.932904 2.002743 77 67 65
3.328989 0.442857 2.133812 245 234 228
3.689440 0.777314 2.104396 255 248 240
3.521737 -0.664907 2.060770 81 74 68
3.167065 0.678970 2.159692 232 219 203
3.949613 0.694697 2.068271 67 57 48
4.246730 0.218899 2.004500 43 36 28
3.633837 -0.766203 2.029526 248 229 225
3.522898 0.129993 2.104630 87 78 71
3.737468 0.862487 2.099581 52 51 57
3.388755 0.340932 2.122702 64 54 55
3.935785 0.609565 2.065225 255 246 237
3.634758 0.852452 2.114796 81 80 78
3.816556 0.845546 2.084080 228 204 200
3.876483 0.312315 2.061809 104 83 78
3.069297 -0.065843 2.146916 126 120 122
3.470894 -0.342900 2.089195 96 85 81
4.517452 -0.412675 1.941999 70 59 53
4.308195 -0.089475 1.985075 141 112 108
4.187371 0.226806 2.013595 127 114 106
3.358145 0.052138 2.120824 226 227 221
3.976502 0.447661 2.051857 252 233 226
4.639991 -0.178430 1.930472 255 249 241
4.465856 0.233073 1.966577 102 106 107
3.843264 0.002194 2.060159 86 84 85
3.730807 0.217053 2.082647 252 248 239
3.785935 0.207788 2.081010 253 224 216
4.067182 0.932066 2.056780 74 64 65
4.186684 -0.059576 2.006857 119 118 114
4.501061 0.157172 1.972194 18 12 12
4.203540 0.307560 2.010131 178 160 156
4.346824 0.535748 1.998685 238 221 214
3.182882 -0.315502 2.121125 241 235 223
3.296560 0.711632 2.148304 86 65 70
3.727366 -0.184391 2.066329 91 79 67
3.388755 0.340932 2.122702 64 54 55
4.491564 0.182133 1.961657 255 248 242
4.290052 0.025339 1.991481 91 87 88
3.053038 0.400421 2.160509 53 41 45
3.690842 -0.114108 2.070336 255 240 234
3.922565 0.530186 2.065453 244 212 201
3.278860 0.215100 2.132390 93 79 76
3.298964 -0.396892 2.102287 81 75 75
3.972986 -0.422743 2.011856 255 255 244
3.064236 0.442026 2.169833 90 87 80
3.884591 -0.026742 2.049037 61 54 48
4.227275 0.177065 2.009928 118 105 99
4.628510 -0.331610 1.932000 92 79 73
4.640780 -0.321299 1.928684 152 128 118
3.841021 -0.256687 2.046247 255 252 243
4.553830 0.152320 1.957193 255 252 244
4.287947 -0.315662 1.972050 81 70 74
3.821718 -0.080861 2.059176 255 252 246
3.053038 0.400421 2.160509 53 41 45
4.390939 0.071570 1.980210 255 254 246
3.871070 0.048542 2.053584 254 230 218
4.064608 -0.152176 2.020000 245 232 224
4.298791 -0.099230 1.987835 76 71 67
4.091300 -0.411417 1.999696 255 252 244
3.833456 0.370618 2.083093 254 251 244
3.294744 -0.240203 2.114177 61 48 57
4.402987 -0.249025 1.964806 255 245 233
3.886357 0.780450 2.077230 145 117 114
4.354861 -0.260468 1.963664 85 82 73
4.182256 -0.389078 1.987023 90 85 89
3.295594 -0.392307 2.099482 241 228 222
3.628012 0.465802 2.102608 245 217 214
4.551564 -0.076742 1.941284 114 87 78
4.016291 0.131660 2.039288 222 192 182
4.490738 0.939951 1.995234 88 88 86
4.505172 0.671147 1.976940 93 78 81
4.446743 0.852029 1.990437 238 218 217
4.215369 0.772028 2.028469 247 238 231
4.034529 0.799900 2.054108 109 90 83
3.852293 -0.139064 2.050131 255 249 247
4.004539 0.308101 2.051032 255 250 239
3.718838 0.608102 2.091563 255 244 237
4.512176 0.694511 1.977971 242 218 208
3.942869 0.288925 2.062138 255 255 246
4.296643 -0.069867 1.988317 161 142 136
3.703368 -0.271773 2.060583 76 67 58
3.631614 0.802316 2.110215 110 104 104
4.508276 0.496605 1.972612 255 255 243
3.170448 -0.205130 2.130265 220 207 199
3.632549 0.766281 2.106608 60 46 43
4.509504 -0.471596 1.936446 71 58 65
3.547357 0.058569 2.099585 137 119 117
4.301572 -0.497351 1.954911 255 254 243
3.879309 0.233753 2.062989 120 101 95
3.777510 0.846981 2.090021 21 12 13
3.776978 -0.268912 2.050381 144 127 119
4.191069 0.770686 2.031161 246 236 227
4.608595 0.559093 1.961626 255 251 242
4.072374 0.083849 2.029408 255 243 238
3.502722 0.503496 2.114134 133 123 114
3.504745 -0.654687 2.058396 122 112 103
4.147960 0.342964 2.021098 125 106 100
3.839789 0.025412 2.060158 255 255 250
4.484479 0.384045 1.983786 94 90 79
3.789041 -0.345801 2.040011 255 248 240
3.579364 0.706104 2.110004 140 106 97
3.988147 0.373133 2.055534 209 184 177
4.073112 0.389134 2.037271 255 246 240
4.182256 -0.389078 1.987023 90 85 89
3.740111 -0.711464 2.023835 71 65 65
3.621126 0.038683 2.097020 123 118 115
4.069784 0.032841 2.024770 94 84 82
3.735775 0.854836 2.103219 47 47 39
3.498768 0.399738 2.118717 255 246 239
3.994262 0.690438 2.058951 230 217 209
3.380407 0.775515 2.133729 158 132 119
4.006053 0.688668 2.055482 251 231 224
3.728283 0.045890 2.082243 255 248 233
3.170490 -0.205281 2.130013 206 193 185
4.091411 0.231397 2.026373 255 245 234
3.854293 -0.760812 2.005731 119 117 118
3.746177 -0.275172 2.056950 132 112 105
4.618838 -0.125945 1.934938 108 84 80
3.183578 -0.174462 2.127352 95 89 89
4.198034 -0.094919 2.003473 255 254 244
4.167989 0.591464 2.030102 255 249 243
3.820567 -0.030355 2.062113 228 215 207
3.847628 -0.450301 2.028215 254 236 226
3.336229 0.051965 2.121536 240 241 235
3.211712 0.278658 2.139174 232 219 213
4.053172 0.154137 2.037576 70 62 60
3.781343 0.447229 2.079928 236 221 214
4.278737 -0.263435 1.986203 91 76 69
4.068460 -0.489850 1.997559 255 252 246
3.568599 0.852455 2.118608 255 253 249
4.621612 0.114426 1.940890 99 97 98
3.510031 0.874752 2.124598 237 227 218
3.959596 -0.037646 2.045900 74 73 69
4.413534 -0.018319 1.982991 88 77 71
3.635152 0.793565 2.105985 238 216 205
3.298595 -0.362182 2.104118 82 67 70
4.171345 0.573276 2.030563 38 29 30
3.290006 0.099842 2.130772 129 128 126
4.626161 0.886851 1.976841 70 66 65
4.625146 -0.246540 1.934333 255 254 250
3.608509 -0.181149 2.087043 255 253 246
3.801244 0.553471 2.077265 123 96 89
3.462801 0.442934 2.116499 149 127 116
3.907609 0.313602 2.066088 255 241 233
3.391444 0.318891 2.123469 255 251 246
4.212528 0.867305 2.030503 255 254 246
3.954431 0.856857 2.069649 62 59 50
4.337882 -0.021528 1.977532 255 243 231
3.277860 0.226238 2.135406 54 44 45
3.579684 -0.173965 2.085193 114 87 80
4.411864 0.147303 1.975760 81 83 78
4.075295 -0.092877 2.017493 173 159 150
3.839804 -0.471093 2.030606 251 243 230
4.196528 0.293971 2.012338 69 60 53
3.879309 0.233753 2.062989 120 101 95
3.517566 -0.253408 2.084840 87 85 86
4.016852 0.235297 2.038993 131 112 105
3.956457 0.049898 2.041571 243 228 221
4.159267 0.134267 2.013381 239 222 214
3.743477 -0.096569 2.064010 255 250 233
4.176019 0.878121 2.039540 253 235 225
3.579919 0.790302 2.112930 104 81 73
3.961816 0.689829 2.066083 93 75 65
4.510840 0.064801 1.966373 99 101 98
3.803087 0.065857 2.062366 225 211 208
4.631163 0.153416 1.949088 255 255 250
3.956241 0.853253 2.072546 65 55 43
3.907398 -0.095306 2.041765 119 88 85
4.622842 0.125012 1.942928 116 112 113
4.194373 0.213649 2.007219 255 250 244
3.705908 0.311014 2.084541 255 247 238
3.614098 0.526378 2.111798 144 139 135
3.530717 0.699196 2.117495 94 60 58
3.491098 -0.176578 2.089662 255 250 242
3.592596 -0.158068 2.084450 255 250 240
3.789045 -0.345753 2.040335 255 248 240
4.511707 -0.323034 1.934455 255 253 241
3.389531 0.312168 2.127717 40 31 36
4.339767 0.070225 1.982056 163 132 129
3.887697 0.722833 2.069135 255 240 233
3.756193 -0.110018 2.061246 240 225 218
4.286567 -0.478774 1.967978 87 85 88
3.628371 -0.177862 2.075201 246 239 231
3.051075 0.226532 2.159554 66 55 61
4.325985 -0.164106 1.976502 111 93 93
3.619594 -0.599787 2.049513 252 252 242
4.201372 -0.478430 1.973425 116 106 107
4.045131 0.536195 2.051922 98 94 85
4.254997 -0.103471 1.995741 251 244 236
4.594713 0.237912 1.947940 127 114 108
4.114640 -0.154600 2.004799 130 107 99
3.244915 0.361050 2.137775 239 223 208
3.069297 -0.065843 2.146916 126 120 122
4.501010 -0.178042 1.944543 255 251 248
3.403042 0.645749 2.131322 255 241 243
3.576907 0.761790 2.109752 255 240 236
3.851844 0.609051 2.075266 255 246 237
4.523528 -0.260103 1.946377 255 254 245
4.263863 -0.324632 1.979118 99 78 73
4.294807 0.841148 2.023140 72 68 67
4.057832 0.210135 2.037600 240 230 218
3.670839 0.698879 2.098621 131 110 107
4.269944 0.357964 2.005906 243 233 224
4.099758 -0.239569 2.007176 112 83 79
4.386790 0.852936 2.005935 24 8 8
3.394778 0.673529 2.135111 255 255 243
4.268047 0.081151 1.996873 255 248 235
4.284214 -0.296104 1.973613 255 241 234
3.635594 0.616704 2.106903 255 240 233
4.297374 -0.093462 1.988955 255 255 255
3.848461 -0.435138 2.029412 253 239 228
3.627128 0.621437 2.108413 42 36 36
3.967307 -0.041799 2.039669 92 86 86
4.498800 -0.077203 1.953554 255 251 243
4.491942 0.341532 1.965889 250 234 219
3.339492 0.053714 2.119832 65 62 55
4.125018 0.212979 2.024343 233 225 222
4.005654 0.250024 2.043971 144 126 116
4.589104 0.939403 1.976699 45 37 35
4.207854 0.331009 2.016131 255 247 238
4.060818 0.495567 2.044160 125 95 87
3.359862 0.612909 2.141359 102 100 88
4.429059 0.471011 1.985869 110 79 74
4.491220 -0.099521 1.954379 255 237 230
3.399934 0.518269 2.129152 95 84 88
3.529955 -0.109759 2.094546 57 49 46
4.265999 -0.322979 1.972008 255 247 238
3.384188 0.359907 2.125346 249 245 234
4.304066 -0.331900 1.979046 242 238 237
4.610694 0.444914 1.961158 66 62 63
3.818695 0.304391 2.080093 150 119 114
4.078144 -0.314034 2.004430 255 243 236
4.219191 0.009330 2.001996 116 91 84
4.153218 0.054261 2.017853 8 0 0
4.289886 -0.164078 1.987573 62 57 54
4.643662 0.619192 1.957901 247 242 236
4.417489 -0.332719 1.946411 76 65 63
4.240314 0.770223 2.019953 255 248 239
4.111160 0.052201 2.014473 221 202 195
4.403666 0.454103 1.980687 250 228 217
3.961194 0.866401 2.071476 49 45 42
4.291302 0.245085 1.991186 104 83 78
3.937453 0.704033 2.067090 255 248 241
3.937460 -0.332439 2.025044 155 135 128
3.852030 0.765558 2.078358 217 200 184
3.403255 0.669898 2.131547 255 240 234
4.401138 -0.402596 1.951251 104 97 91
3.619591 -0.019467 2.086016 112 111 109
4.199281 0.329332 2.018111 255 251 243
3.475425 0.602990 2.118118 227 209 197
3.392193 -0.114249 2.108959 250 236 225
3.898107 0.313764 2.061058 255 246 241
3.902107 -0.267794 2.033138 255 247 238
4.501533 0.665107 1.979591 251 239 227
4.618277 0.117671 1.948364 246 247 242
3.191824 0.119845 2.138034 239 226 218
4.292004 0.822258 2.017192 246 227 221
4.510272 -0.151520 1.952152 118 108 109
3.884031 0.766571 2.075869 229 216 207
3.621982 -0.018569 2.087363 249 245 246
4.504133 0.154835 1.966177 254 253 249
4.506792 0.812626 1.987424 252 241 237
3.973352 0.607724 2.057494 255 242 234
4.263883 -0.329498 1.979279 251 247 236
3.772350 0.541915 2.087837 109 76 69
4.202525 -0.481772 1.974325 255 246 240
3.582064 0.652801 2.109562 156 133 127
3.391743 -0.104107 2.105274 255 253 245
4.629866 0.873343 1.984807 24 25 20
4.097784 0.107223 2.025861 255 249 242
3.529955 -0.109759 2.094546 57 49 46
4.297199 0.057654 1.997569 100 93 85
3.451297 0.125412 2.115506 50 32 28
4.624075 0.099722 1.943705 109 103 105
3.925775 -0.009926 2.042365 111 94 87
3.853691 0.780607 2.085074 245 245 243
3.818600 0.625088 2.079384 145 126 119
4.408974 -0.336957 1.964961 94 81 73
4.066923 -0.444839 1.995268 251 236 229
3.598687 -0.751729 2.036013 129 116 108
3.869523 0.927974 2.080375 65 61 60
4.183871 -0.073545 2.003708 104 99 95
4.327088 -0.164676 1.979716 111 93 93
3.575002 0.803063 2.113827 109 92 84
3.969392 0.925344 2.062199 242 225 215
3.375043 -0.092653 2.109571 121 102 95
3.626570 -0.003016 2.087371 255 242 242
3.403779 -0.183040 2.108617 242 239 230
3.966673 0.921251 2.064644 231 207 195
3.972185 -0.258204 2.033987 251 248 243
4.499994 0.636876 1.975357 255 252 239
4.385461 0.421532 1.996798 234 228 212
4.605292 -0.175474 1.930066 255 252 249
3.512153 0.123621 2.111162 208 198 196
4.215082 -0.577968 1.965368 250 232 222
3.457554 0.695108 2.125690 157 133 131
4.221241 -0.184323 1.990384 244 235 226
3.727957 0.289135 2.090460 95 87 84
4.608908 0.614384 1.965435 246 246 244
4.623050 0.114368 1.943470 99 97 98
3.776815 -0.145243 2.061500 255 252 248
3.619825 0.503695 2.107925 255 254 251
3.634758 0.852452 2.114796 81 80 78
3.842007 0.539305 2.075526 255 251 244
4.380435 -0.323261 1.961622 105 76 80
3.963038 0.886548 2.066720 232 219 210
4.251603 0.052038 2.001609 255 250 244
4.377057 0.074352 1.974412 173 140 131
4.454181 0.077830 1.969416 95 85 76
3.634142 0.853059 2.110507 255 252 249
4.160846 0.934282 2.043800 91 82 83
3.464247 -0.500577 2.072506 254 250 247
3.767454 0.065729 2.073587 147 129 125
3.907014 0.705568 2.071093 141 113 110
4.002785 -0.003394 2.035856 98 83 76
3.246515 0.052121 2.134587 255 252 248
4.621587 0.739126 1.968742 103 89 89
4.535438 -0.080113 1.941841 146 116 114
4.292132 -0.496680 1.955187 239 226 220
3.167598 0.490051 2.151896 235 228 212
3.920729 0.474814 2.062340 255 236 227
4.222390 0.009807 2.002979 113 88 81
3.941382 0.446973 2.062653 248 244 235
4.270959 -0.264977 1.975609 234 209 202
3.288547 0.533604 2.144942 220 220 210
4.488855 0.543684 1.985247 69 64 61
3.754773 0.127134 2.080633 188 180 169
4.529644 -0.190162 1.945954 119 101 97
3.682332 0.323158 2.095897 253 228 223
3.597895 -0.632686 2.045148 104 89 82
4.594713 0.237912 1.947940 127 114 108
4.398732 0.658977 1.997176 255 242 237
4.192208 -0.329367 1.984781 134 120 111
3.395076 0.382905 2.125387 147 124 116
4.063282 0.638212 2.049228 255 247 240
3.512507 -0.576931 2.061479 255 252 240
4.203358 0.230803 2.005787 149 135 126
3.741813 -0.110122 2.066903 226 209 202
3.748669 -0.191481 2.054642 230 198 187
4.249975 0.135651 2.003026 255 233 224
3.366154 0.053777 2.122782 85 88 79
3.502902 0.012394 2.104839 250 235 232
4.188344 0.290854 2.013442 224 211 205
3.612504 0.049033 2.096789 61 51 50
4.614523 0.709086 1.969934 255 254 241
3.619386 -0.013924 2.088742 87 86 84
4.228194 0.073420 2.001185 79 50 44
3.291270 -0.250736 2.114888 247 237 225
3.829322 0.522702 2.076386 129 111 97
3.910197 0.720655 2.070644 104 84 77
3.509924 -0.653816 2.057065 119 104 99
4.061127 -0.103959 2.032313 74 60 49
3.710305 -0.120601 2.072066 120 103 95
3.583467 0.792548 2.115014 103 83 74
4.439098 0.236307 1.967896 125 106 102
3.902358 0.710745 2.070035 108 80 79
4.168580 0.400991 2.029084 43 37 39
4.096301 -0.497237 1.987556 101 88 79
3.624653 -0.298694 2.068410 255 252 246
3.385760 0.144229 2.119768 255 253 243
4.380740 -0.326761 1.961277 255 253 247
4.261532 0.179245 2.005513 141 124 117
3.707820 -0.169890 2.068518 255 236 230
3.815059 0.147874 2.067345 127 102 95
3.603405 0.189332 2.096603 255 255 251
3.815059 0.147874 2.067345 127 102 95
4.122880 -0.249748 2.002014 134 109 105
3.835281 0.259064 2.076109 140 129 125
4.170049 -0.008674 2.004745 155 135 128
3.897761 -0.172647 2.037595 255 247 240
3.172297 -0.116649 2.132808 61 51 49
3.977274 0.861049 2.061334 139 118 113
3.249603 0.363228 2.139016 42 30 30
3.496483 0.282543 2.111184 235 231 220
3.182826 -0.126482 2.130415 63 51 53
4.515575 0.153296 1.956293 151 136 139
4.606613 0.289890 1.956323 113 107 107
4.424033 0.071642 1.974128 124 105 98
4.190889 -0.171052 1.999689 137 123 122
3.403305 0.130230 2.122966 184 183 178
3.878088 0.235423 2.061684 255 241 234
3.721412 -0.064504 2.074636 160 133 126
3.739183 -0.094266 2.076378 27 12 17
4.280240 0.614670 2.007261 227 202 195
4.032482 0.287319 2.038865 223 206 199
3.622362 0.619955 2.111861 255 255 242
4.061770 0.630969 2.049283 248 246 247
3.177323 0.646215 2.155052 255 255 253
3.755970 -0.415367 2.039838 255 242 235
3.518219 -0.108704 2.097413 80 75 71
3.746015 -0.356312 2.054526 126 120 120
3.955767 0.738690 2.067092 255 244 234
3.682009 -0.134096 2.075544 163 143 136
3.932873 0.860135 2.076367 247 245 233
4.193204 -0.129206 2.001560 255 242 235
4.246941 0.855969 2.030999 91 82 75
4.501658 0.154836 1.960655 254 253 249
3.846801 -0.310789 2.045348 246 233 227
3.518915 -0.548446 2.065341 246 228 224
4.413502 0.219290 1.974082 247 220 213
4.140972 0.769972 2.034278 250 233 225
3.824955 0.508555 2.073813 113 84 76
3.514525 0.129680 2.110258 74 66 64
3.168777 0.330011 2.147943 223 199 199
3.717859 0.366408 2.093458 246 229 221
3.503217 0.069615 2.108360 255 255 243
3.962039 0.285420 2.054179 248 234 225
3.279137 0.430244 2.142744 63 52 58
3.657804 0.366704 2.095760 194 184 174
4.433792 0.706704 1.985038 132 111 108
4.486984 0.697745 1.986832 255 244 240
3.503264 0.440583 2.118694 77 66 64
3.812292 -0.651911 2.018447 250 233 225
3.658125 -0.206131 2.068753 135 111 107
4.207060 0.632186 2.024962 254 236 232
4.643383 0.619069 1.957446 247 242 236
3.812808 0.130183 2.073198 37 30 24
4.392903 0.098698 1.974416 255 253 244
4.458608 0.084921 1.967668 114 100 97
4.631515 0.871664 1.979824 255 255 241
4.506031 0.851211 1.988733 239 229 227
3.277347 0.360822 2.134676 201 178 172
3.643248 0.696287 2.105715 255 250 244
4.604493 0.451739 1.960812 255 252 250
4.170223 0.070437 2.015211 252 253 248
4.614597 -0.016954 1.936368 108 92 93
3.858115 0.690984 2.085244 255 228 217
3.724177 0.366375 2.092034 255 243 234
4.538563 0.099081 1.955565 255 250 241
3.766909 -0.123177 2.065187 120 106 103
3.626520 0.265286 2.098596 134 114 107
4.292004 0.822258 2.017192 246 227 221
4.507069 -0.433238 1.933145 74 68 68
3.301784 0.039963 2.124459 241 218 210
4.041846 0.215284 2.042619 76 60 60
4.273861 0.161285 2.005973 255 251 249
3.617590 -0.418915 2.063103 255 238 229
4.299528 0.934534 2.020469 67 66 64
4.562178 -0.072004 1.944993 131 112 105
3.435781 0.712183 2.124279 246 233 227
4.309940 -0.103063 1.983607 254 245 238
3.863012 -0.253226 2.038845 143 122 117
4.535725 0.469573 1.967663 255 255 248
3.240132 0.812034 2.152834 119 100 96
4.405080 -0.248570 1.957748 255 250 236
3.423598 0.539659 2.125554 153 133 126
3.566460 0.789827 2.115916 236 209 198
4.625643 0.158079 1.940876 109 84 79
3.448511 0.218361 2.115504 255 250 241
3.841506 0.622091 2.078516 159 142 134
3.635850 -0.111979 2.080352 209 200 195
3.515334 0.914331 2.129287 78 76 77
3.957135 0.886864 2.069668 255 248 245
3.742562 -0.021404 2.080268 116 108 105
4.503450 0.153497 1.970009 100 99 97
4.468192 0.238250 1.972173 50 40 41
4.419247 -0.417753 1.948530 235 222 214
4.320889 0.782062 2.009934 244 241 234
4.289059 -0.322181 1.975278 104 95 98
4.137994 0.213054 2.026774 255 250 247
4.202386 -0.341831 1.985173 255 253 244
3.071610 -0.051943 2.146406 92 82 81
4.505793 0.467928 1.965911 253 255 249
3.845020 0.257541 2.072834 255 250 245
4.284937 0.640970 2.011893 98 92 92
3.218049 -0.265420 2.119794 117 97 90
4.496952 -0.093984 1.958489 231 233 228
3.072076 -0.055238 2.145379 118 110 107
4.103278 0.929949 2.044557 73 64 67
3.722621 0.160778 2.077078 106 81 76
3.763035 -0.076830 2.062027 255 238 230
4.645498 0.714634 1.968746 134 104 104
4.345777 0.149455 1.993362 255 253 244
3.649282 0.263075 2.096015 255 246 237
4.075238 -0.108294 2.020735 210 187 179
3.633508 0.684985 2.104800 207 183 173
3.198033 -0.436779 2.107266 242 222 213
4.508717 0.479000 1.975641 253 253 243
3.898781 0.272552 2.062320 244 226 216
3.374510 -0.086025 2.109449 126 107 100
4.673174 0.396195 1.945815 254 254 244
4.175735 0.572922 2.027794 72 52 53
3.419361 0.353569 2.121589 132 109 101
3.624566 0.018765 2.090410 239 221 221
4.319227 -0.169582 1.977622 255 253 246
4.550919 0.736607 1.972579 84 75 68
4.295913 0.809553 2.020042 49 40 41
3.841005 0.934349 2.084675 225 230 233
3.403913 -0.315714 2.094283 250 241 232
3.673695 0.926818 2.107663 47 43 40
3.815788 0.260219 2.078696 248 231 224
4.232705 0.009203 2.000931 107 85 74
3.654666 0.560660 2.098588 156 136 125
3.743453 -0.409378 2.048321 248 231 224
3.835706 0.316067 2.073038 54 43 47
4.130708 0.236397 2.022029 255 244 230
3.727140 0.078143 2.087919 255 255 246
4.183071 -0.348897 1.987684 86 71 74
4.406129 -0.402376 1.940253 250 240 231
4.594818 -0.077572 1.937038 119 94 90
4.205260 0.229334 2.008513 255 250 243
4.625905 -0.168259 1.939536 255 253 247
3.426132 0.282110 2.116253 239 216 210
4.049609 -0.265890 2.016621 232 220 208
3.516278 -0.565483 2.067744 123 113 114
4.180008 0.166250 2.016966 157 143 143
3.515965 -0.174515 2.090379 108 87 82
4.396943 0.748116 2.003867 255 251 248
4.156687 -0.246342 1.999758 251 232 225
4.576900 0.088996 1.945832 120 104 91
3.504745 -0.654687 2.058396 122 112 103
3.738305 -0.074244 2.070173 105 99 101
3.555677 0.502752 2.108903 251 238 230
4.615973 -0.020910 1.940444 250 230 219
4.362539 -0.244089 1.960404 162 141 136
3.506245 0.126619 2.108321 243 243 243
4.583903 0.944018 1.993692 60 51 52
4.403207 0.056633 1.970155 255 253 244
4.625892 0.697998 1.963125 243 221 208
3.790284 0.342071 2.076798 255 252 250
4.136434 0.073706 2.020077 126 110 110
4.096719 0.318323 2.030299 255 255 251
3.916682 0.410670 2.060965 105 86 80
3.530534 0.282352 2.108678 224 209 206
3.796957 -0.175300 2.056157 149 135 126
4.104794 0.289639 2.027839 225 222 217
3.315288 0.600450 2.138654 217 192 185
3.721410 -0.654944 2.033500 247 230 220
4.178077 0.709981 2.036816 254 245 240
3.281262 0.130284 2.139744 184 184 174
4.439098 0.236307 1.967896 125 106 102
3.979272 0.818477 2.061109 109 105 102
4.006458 0.287450 2.045989 242 229 220
3.344791 -0.104301 2.114462 133 108 104
4.182818 -0.044295 2.004093 102 101 99
4.426293 0.393153 1.984661 145 103 105
4.504434 0.210414 1.968816 255 254 245
4.447221 0.938903 1.997414 215 218 211
3.255089 -0.252455 2.116803 134 114 107
4.206329 0.917656 2.026778 100 83 75
4.262414 -0.320789 1.974310 255 250 243
4.617642 -0.030497 1.933369 255 250 246
3.438417 -0.009093 2.106747 118 95 87
3.652148 0.260574 2.096512 255 245 238
4.147908 0.029398 2.005576 146 123 115
4.167510 0.123604 2.011696 255 243 234
3.832939 -0.303023 2.040888 255 248 240
4.294220 0.137247 1.992664 85 62 56
3.952836 0.483435 2.057811 233 210 202
4.161785 -0.332218 1.992025 255 254 242
3.515770 -0.062485 2.095925 132 130 131
4.070938 -0.252163 2.009206 255 252 246
4.492197 0.678141 1.981863 255 245 241
3.913285 0.928161 2.076225 91 92 87
4.217000 -0.061775 1.995709 237 218 211
4.492713 0.170266 1.961024 255 252 240
4.497329 0.085870 1.952180 161 148 140
4.001856 0.443355 2.049846 142 114 103
3.659582 0.284732 2.097735 215 196 189
3.153305 0.357168 2.147577 255 250 241
3.932475 0.546287 2.062129 255 250 239
3.953411 0.348080 2.055989 144 111 104
4.164572 -0.172935 2.005510 255 255 248
3.383944 0.553641 2.129098 241 226 219
3.942657 0.480821 2.062130 251 228 222
4.434108 -0.442524 1.941837 117 107 105
3.632632 -0.174566 2.083730 95 94 89
3.182255 -0.013727 2.136488 125 117 115
3.974487 0.283180 2.053039 246 231 224
3.854345 0.064591 2.058755 128 114 111
4.503891 -0.072903 1.948595 106 95 91
3.855672 0.764601 2.073923 239 223 208
4.466120 0.238398 1.967216 50 40 41
3.522115 0.059598 2.105538 134 106 102
3.711887 0.318971 2.092170 255 251 242
4.505793 0.467928 1.965911 253 255 249
4.043162 0.530349 2.048406 217 214 205
3.833129 0.562711 2.080004 122 93 85
4.397843 0.537509 1.992344 250 237 229
3.296785 0.860242 2.154067 61 55 55
4.511309 0.791012 1.989357 76 72 69
4.160195 -0.185614 1.998622 246 246 238
4.054546 -0.418751 2.006297 86 71 66
3.240047 0.280215 2.139793 228 223 219
4.503134 0.214889 1.964772 45 40 44
4.105126 0.072474 2.017303 155 131 129
3.121492 0.393208 2.150174 96 83 77
4.164030 0.770939 2.036216 243 219 215
3.343525 0.784831 2.135246 132 112 105
4.171821 0.566961 2.030787 63 58 62
4.192950 -0.095770 2.007875 229 226 219
3.505577 0.011901 2.095261 88 73 66
3.850470 0.318950 2.070163 135 118 110
4.403151 0.708442 2.001746 111 106 102
3.621571 -0.032545 2.092036 245 228 221
4.184534 -0.085007 2.001826 102 103 105
3.636895 0.698737 2.108303 114 84 82
3.768985 0.925568 2.091185 20 16 13
3.777203 0.236948 2.075219 255 248 240
4.132757 0.212869 2.028071 239 231 229
3.521190 -0.254282 2.080868 234 225 226
4.163664 -0.329167 1.991215 100 80 79
3.159037 -0.377898 2.116013 127 114 108
4.022662 0.004523 2.026179 255 248 240
3.181983 -0.346083 2.119322 252 245 237
3.599570 -0.633222 2.042135 253 244 235
3.735321 0.061807 2.082675 248 236 236
3.812057 0.303477 2.072628 150 121 115
4.594358 0.094765 1.948183 255 248 239
3.177630 -0.112488 2.136528 216 212 203
3.631614 0.802316 2.110215 110 104 104
3.391497 0.063551 2.118083 112 91 86
3.384868 0.551383 2.128749 118 103 96
3.735792 -0.061338 2.079716 114 112 113
4.134902 0.071798 2.015038 254 248 248
4.279467 -0.468521 1.962123 255 251 241
3.859147 0.242472 2.060552 255 241 235
3.253143 0.054097 2.130832 149 120 116
4.179052 0.093290 2.010136 58 58 58
3.768823 0.488624 2.085588 116 99 92
4.278998 -0.417886 1.965246 220 217 210
3.408222 -0.329494 2.093296 70 66 67
3.840983 0.851810 2.087598 90 81 74
3.851567 0.788399 2.086078 220 212 209
4.171556 -0.007331 2.009578 255 246 239
3.647378 0.059646 2.092110 151 137 134
4.127803 -0.344974 1.997212 119 111 100
3.846718 -0.435168 2.035937 103 92 96
3.284344 0.617109 2.145213 134 106 102
3.753568 0.046792 2.067980 255 251 243
4.535926 0.097951 1.945553 96 77 70
3.735203 0.863896 2.100483 251 244 236
4.126417 -0.265614 2.000089 255 235 229
3.906597 0.718057 2.070105 255 245 241
4.232310 0.317775 2.013539 255 251 243
3.388323 0.685653 2.132290 87 71 72
4.367908 -0.388329 1.948250 142 112 104
3.524446 -0.022929 2.095923 255 252 246
4.008530 -0.330207 2.014495 133 126 120
4.412108 0.190056 1.980909 241 231 222
4.406246 0.106387 1.978359 243 233 232
4.155447 0.860044 2.038234 255 255 248
3.950978 0.634788 2.060215 255 250 243
4.173012 0.123336 2.017713 255 253 247
4.275159 0.155344 2.006529 255 254 250
4.289261 -0.422534 1.965130 236 234 221
4.385736 -0.181281 1.969505 255 254 243
4.592725 0.537172 1.956536 252 235 227
3.848317 0.817756 2.077561 106 86 79
4.396284 0.098857 1.976600 72 71 69
3.955189 0.758493 2.066891 250 251 246
4.206727 -0.243072 1.986297 143 118 111
3.912688 0.129615 2.053618 115 88 81
3.917071 0.132094 2.052000 215 197 187
4.219175 0.009349 2.001953 116 91 84
4.490782 0.373922 1.969298 255 242 231
4.512542 -0.258731 1.940820 255 250 244
3.171389 0.203988 2.156209 76 61 56
3.434358 0.711264 2.128089 113 94 90
3.880328 0.238213 2.059340 255 252 242
4.410919 0.922998 1.999630 219 202 195
4.687057 0.644342 1.953517 112 91 90
3.849911 0.662634 2.075052 140 112 98
3.648597 0.711256 2.101833 118 93 88
4.569970 -0.215353 1.939615 255 250 243
4.239626 0.237545 2.004297 255 243 236
4.290878 -0.238936 1.978344 119 104 97
4.177931 -0.513170 1.974464 121 113 111
3.766217 -0.122330 2.057468 120 106 103
4.294159 0.827004 2.017830 69 63 65
4.314325 -0.481323 1.954076 135 115 114
4.421167 0.486180 1.983881 255 242 237
3.744620 -0.320138 2.049357 255 250 243
3.577966 0.221732 2.094630 110 90 89
3.527119 0.699460 2.121895 113 84 86
3.181549 -0.453809 2.112131 95 79 80
3.476072 0.067880 2.099692 103 68 66
4.085629 0.242050 2.031588 255 250 240
3.986469 0.851334 2.067249 227 209 205
4.216270 0.547956 2.015716 130 122 111
3.876081 0.315266 2.069815 255 246 239
4.513949 -0.163936 1.951835 122 97 93
3.736304 -0.072851 2.078901 98 94 91
4.688982 0.644826 1.956821 112 91 90
4.217878 -0.024401 1.995726 231 211 204
3.217801 0.360247 2.143367 248 234 233
4.192672 -0.329661 1.986210 134 120 111
3.997008 0.351529 2.046331 254 234 225
3.179341 0.539826 2.142311 128 109 102
4.081389 -0.658121 1.975726 255 255 250
3.823424 0.083107 2.059814 246 229 221
4.170736 -0.194844 2.000457 230 220 211
3.793361 0.341358 2.082945 118 103 100
3.177880 0.012601 2.139004 112 107 111
4.551113 -0.264869 1.933381 250 230 223
3.411943 -0.332974 2.104753 240 215 208
4.419537 -0.331525 1.959800 69 66 61
3.990178 0.288159 2.049429 205 195 186
4.512694 0.100950 1.959125 255 250 244
4.214191 -0.167570 1.995584 143 119 117
4.014019 0.267927 2.043105 255 244 238
4.393792 0.584512 1.985416 237 223 210
3.837511 0.305424 2.079510 104 101 96
4.204632 0.633104 2.024270 114 99 94
4.550528 0.736382 1.971883 84 75 68
3.808489 -0.163155 2.054080 128 109 102
4.133407 0.120972 2.018435 255 246 238
3.751862 -0.075918 2.072445 132 107 100
4.613293 0.302327 1.953148 254 247 239
4.274020 0.373865 2.014772 248 245 238
3.517934 -0.350577 2.078211 228 229 224
3.822831 0.624195 2.080246 255 249 240
3.879934 0.097286 2.058068 149 134 129
3.907014 0.705568 2.071093 141 113 110
3.713607 0.818336 2.095449 131 116 109
3.499119 0.917802 2.124573 216 204 192
4.228544 0.635410 2.021534 123 102 97
4.077472 -0.498311 1.987023 255 239 229
4.096846 -0.029493 2.014532 135 117 107
4.030507 0.307762 2.041619 118 85 78
4.394549 0.006911 1.974456 113 102 98
3.584779 0.008092 2.093630 255 249 242
3.735049 0.573831 2.093686 234 205 197
4.455530 0.085266 1.960337 114 100 97
3.728860 -0.177730 2.060719 255 253 244
3.331148 0.166004 2.122778 255 233 229
3.401350 0.620890 2.137105 88 78 79
4.624601 0.779989 1.969605 85 75 74
3.957036 0.067570 2.050550 76 77 72
3.835918 0.206322 2.071523 254 235 229
3.632704 0.227213 2.090616 141 122 116
4.198539 0.001715 2.006633 112 87 82
3.728350 0.093639 2.088413 78 77 75
3.988343 -0.731908 1.989123 43 30 22
3.933463 0.007545 2.041749 114 93 88
3.470462 0.572745 2.122065 255 253 244
3.833693 -0.305298 2.041706 134 117 109
3.735044 0.863364 2.099344 227 217 205
4.103094 -0.238862 2.004798 255 234 229
3.727826 0.066035 2.089833 250 247 242
3.389843 0.311917 2.123588 40 31 36
4.390165 0.229586 1.986706 255 251 242
3.676223 -0.315594 2.064944 255 249 238
3.703696 0.765735 2.099314 251 234 224
3.292076 0.752395 2.145674 92 75 68
4.520939 -0.201717 1.945093 249 234 229
4.383473 0.429576 1.990285 255 254 242
3.116237 0.118251 2.146569 232 221 215
3.817831 0.222936 2.069203 124 101 95
3.955998 0.862459 2.070737 203 203 195
3.878864 0.166104 2.062701 249 228 223
3.723387 0.160795 2.087987 106 81 76
3.693033 -0.110429 2.074483 224 201 193
3.841515 -0.265994 2.044340 95 74 69
3.744529 -0.157642 2.058227 94 74 65
3.384655 -0.094357 2.108829 110 91 85
3.903740 0.342524 2.061743 137 108 102
3.938205 0.926633 2.067253 63 57 45
4.147908 0.029398 2.005576 146 123 115
3.907501 0.464534 2.065758 122 93 85
3.617716 0.248144 2.093059 255 237 230
3.343525 0.784831 2.135246 132 112 105
3.629140 0.843535 2.114091 79 75 76
3.912195 0.471850 2.068034 255 240 231
4.062063 0.168639 2.031562 255 246 243
3.706943 -0.245909 2.064753 109 84 79
3.326488 0.165547 2.128016 255 251 246
4.042619 0.802894 2.051514 115 95 86
4.005340 0.316135 2.050851 118 81 73
4.186128 0.768813 2.029648 255 254 244
4.323263 -0.304709 1.962031 253 235 225
3.490891 0.382382 2.119527 255 238 231
3.335191 0.777281 2.138516 238 219 202
3.715897 0.765933 2.099977 239 220 213
3.571986 0.815225 2.112978 249 234 227
3.393185 -0.112181 2.105865 37 28 29
4.472325 -0.005819 1.955716 142 124 120
3.972496 0.130775 2.047173 255 251 241
4.045030 -0.596680 1.989668 131 103 99
3.972750 0.563676 2.057197 255 245 241
3.460955 -0.089073 2.094368 229 206 198
3.283913 0.294811 2.137329 156 135 134
3.583842 0.508039 2.104837 119 102 95
4.402721 0.904884 2.001817 86 85 83
4.614615 -0.156926 1.932759 112 97 90
3.413214 -0.338779 2.097226 215 189 188
3.904463 0.074369 2.051778 255 251 244
4.086806 -0.581790 1.975288 170 141 137
4.330894 -0.432218 1.959338 129 104 97
3.512945 -0.655910 2.056417 255 247 242
4.429984 -0.442997 1.941111 135 126 119
3.618466 0.297094 2.097824 255 254 248
4.105126 0.072474 2.017303 155 131 129
3.506649 0.252090 2.106750 255 252 235
4.382697 0.412570 1.986592 255 252 248
4.140628 -0.399761 1.987085 121 96 92
3.910624 -0.061610 2.044816 255 240 233
4.288444 -0.462901 1.958564 246 232 223
4.323335 0.312702 1.993486 133 109 109
4.329319 0.868925 2.013493 108 91 83
3.904294 0.342827 2.064939 137 108 102
3.303994 0.050677 2.128005 176 179 168
4.223396 -0.313410 1.979133 101 82 76
4.183388 0.092509 2.011998 255 244 238
4.510627 0.534398 1.975864 251 249 236
3.074474 -0.060668 2.144503 255 253 241
4.208565 0.102983 1.999839 125 104 99
3.995878 0.439187 2.052946 120 103 95
4.072638 -0.271716 2.013491 254 254 252
3.382966 0.363390 2.122771 103 96 90
4.186705 -0.093155 2.008901 229 231 228
4.312286 -0.338269 1.966340 249 235 226
3.394080 0.377480 2.128352 146 123 117
4.331450 0.136510 1.983443 255 236 229
4.391152 -0.219659 1.957388 249 234 229
3.995450 -0.229925 2.021709 255 253 244
3.914571 0.470408 2.062904 140 110 100
3.716835 -0.581565 2.032268 80 64 51
4.331634 -0.160715 1.971893 255 249 243
4.300907 -0.165240 1.982889 119 94 90
3.707354 0.309134 2.083777 121 104 97
3.879155 0.050521 2.059497 213 205 194
3.986295 -0.007891 2.033850 135 117 113
4.503891 -0.072903 1.948595 106 95 91
3.822868 0.191763 2.080397 255 252 247
4.000990 0.256658 2.045988 255 249 241
3.829961 0.485985 2.074369 102 75 66
3.947653 0.608485 2.070731 236 232 229
3.515852 -0.051348 2.095831 101 98 93
4.613750 0.393693 1.957348 255 255 250
3.364324 0.057545 2.121922 107 88 84
3.298595 -0.362182 2.104118 82 67 70
4.012413 0.451853 2.050088 249 241 230
4.396348 -0.019860 1.969877 119 104 99
3.462002 0.418426 2.121385 248 234 225
4.507339 0.156269 1.965178 101 84 77
4.333522 -0.287453 1.969276 149 134 129
4.688982 0.644826 1.956821 112 91 90
3.177418 0.510886 2.149647 225 207 205
3.631199 -0.306905 2.072540 214 205 206
3.438417 -0.009093 2.106747 118 95 87
3.813154 0.245207 2.071612 255 248 244
4.218667 0.809570 2.023057 116 98 88
3.495822 0.109930 2.105942 255 237 232
4.679669 -0.060094 1.926408 255 255 239
4.107053 -0.294427 2.002553 115 85 77
4.166122 -0.006095 2.004478 127 102 95
4.137808 0.859357 2.045820 117 118 110
3.850489 -0.545298 2.019881 255 251 242
3.836357 0.874560 2.080491 255 247 248
3.517699 -0.077167 2.095407 121 121 121
3.521115 -0.022949 2.098587 255 252 246
4.399826 0.713795 1.999108 43 37 39
3.649612 -0.124623 2.079455 253 239 228
3.927824 0.860117 2.071592 127 113 110
3.678011 0.931367 2.106251 83 87 90
3.234647 0.486198 2.141767 126 113 107
4.213229 -0.200362 1.985576 255 244 237
3.762702 -0.332613 2.048731 145 126 120
3.763529 -0.188402 2.054575 236 206 196
4.437718 0.488275 1.983324 255 247 241
3.625679 0.035062 2.089031 255 251 244
4.336637 0.407470 1.999899 100 76 72
3.967969 0.766550 2.061721 253 227 212
4.518781 -0.100126 1.953132 241 228 220
4.151373 0.465095 2.034679 242 244 239
3.519894 0.702255 2.124081 62 43 45
4.616433 0.142323 1.949056 247 255 250
3.614295 0.281118 2.098686 248 225 217
3.470729 0.604942 2.122527 195 187 176
3.677923 -0.369726 2.051328 111 88 80
4.519915 -0.199873 1.946864 128 115 109
3.510356 0.901494 2.126758 243 241 226
3.523177 -0.099766 2.096569 255 250 242
4.124062 0.087885 2.017349 131 108 100
3.382710 0.840812 2.136139 241 228 219
3.634433 0.829796 2.108017 228 211 203
3.517545 -0.031042 2.101827 51 47 44
3.404041 0.653591 2.132019 219 200 194
3.614233 0.281080 2.096679 248 225 217
3.907501 0.464534 2.065758 122 93 85
4.115382 0.239382 2.021702 112 85 76
4.507263 0.062808 1.962135 251 252 247
3.328000 0.895655 2.144693 245 235 226
3.729197 -0.096324 2.068402 204 189 182
4.486310 -0.073090 1.950012 128 119 112
3.636875 0.698140 2.105849 114 84 82
3.419361 0.353569 2.121589 132 109 101
3.398120 0.558333 2.130416 114 107 101
3.611872 0.303239 2.106487 255 251 249
3.298953 0.882713 2.148871 238 232 218
3.662886 -0.338465 2.066904 147 134 128
3.787910 -0.645192 2.018037 120 106 97
4.337350 -0.070839 1.974632 157 142 135
4.288906 -0.475301 1.959903 245 236 239
3.960939 -0.054342 2.044628 105 104 102
4.291706 0.246236 1.997294 255 245 240
3.463121 0.604218 2.122996 223 213 203
3.291706 0.730929 2.145845 225 212 203
3.510039 -0.193071 2.099797 80 75 71
3.722103 -0.134350 2.069823 255 244 238
4.238973 -0.498210 1.963752 230 219 213
3.591672 0.791507 2.115834 118 100 96
3.982365 0.335173 2.051351 255 232 228
3.966225 0.021043 2.037745 246 221 214
4.237622 0.079437 2.000046 152 123 115
3.661821 -0.237213 2.063449 113 83 75
4.511894 -0.066500 1.951614 120 109 105
4.220587 -0.064362 2.000696 115 96 89
4.084123 0.162612 2.024355 255 249 242
3.901139 0.587453 2.068230 108 89 82
4.504272 0.470949 1.981614 212 212 210
4.613498 0.100719 1.946977 255 249 236
3.291830 -0.208318 2.111229 242 238 229
3.743196 0.917048 2.098640 255 231 227
3.381500 0.703574 2.135391 140 111 105
4.017263 0.313209 2.048018 152 135 128
4.430819 0.078113 1.962010 123 105 95
4.398778 -0.231626 1.967937 89 78 86
4.183876 -0.039360 2.002486 104 104 104
3.802299 0.231762 2.069715 255 251 243
4.255806 -0.417858 1.968220 230 224 208
3.573036 0.805035 2.116344 253 236 228
4.510218 -0.320817 1.944684 255 244 241
3.403955 0.516158 2.127075 235 216 210
3.675958 -0.325090 2.061978 252 240 228
3.428121 0.082664 2.110540 255 247 241
4.512931 0.098374 1.960376 109 88 85
4.417130 0.006327 1.971255 255 249 246
4.146232 0.794960 2.039846 253 233 224
4.622980 -0.185212 1.935725 111 101 102
4.506581 0.005056 1.951910 247 230 223
3.506789 0.552118 2.115347 255 247 241
3.291881 -0.409982 2.096643 150 127 121
4.179134 -0.715924 1.964949 253 236 229
4.051481 0.273042 2.039229 255 241 237
4.119977 0.166144 2.021603 144 134 133
4.095450 0.937885 2.048509 121 131 132
4.509351 0.790579 1.989997 239 238 234
3.773834 0.064179 2.066970 126 108 106
3.225471 0.319681 2.136972 234 215 209
4.083686 0.151758 2.030053 163 142 137
3.759129 -0.276718 2.048810 255 238 230
4.506345 -0.165592 1.958379 255 251 248
3.975711 0.331905 2.052308 255 242 236
4.248526 -0.319134 1.978349 255 244 237
3.510792 0.544900 2.119930 255 255 250
3.817752 -0.169131 2.054111 255 247 239
4.278136 -0.428169 1.963603 255 246 239
4.508866 0.740820 1.983102 71 57 54
4.390619 0.140657 1.987872 47 28 32
4.414270 0.935400 2.005153 38 33 30
4.073003 0.400016 2.038436 248 235 229
4.208703 0.104519 2.006970 244 227 219
3.559640 -0.632206 2.047190 116 93 87
4.441686 -0.053331 1.964089 255 250 248
3.637619 0.693402 2.109382 233 233 225
4.607868 0.449156 1.958688 201 201 201
3.174409 0.458302 2.155304 67 56 60
4.259061 -0.326306 1.980075 255 247 237
3.735207 -0.063875 2.071996 118 114 115
4.619862 0.099808 1.948406 250 246 245
4.031569 -0.243279 2.016137 108 99 92
4.259878 -0.323537 1.976340 255 246 240
4.474848 -0.237091 1.951084 105 91 82
3.899844 0.049694 2.052370 219 194 187
3.634993 0.699817 2.111376 144 110 109
4.288392 0.216153 1.996999 228 213 208
4.203321 -0.400525 1.973893 117 87 79
3.608221 0.243478 2.100315 98 84 75
3.982564 0.223210 2.045954 155 130 125
3.993768 0.603876 2.054343 120 90 88
3.396559 0.426891 2.125096 241 224 217
3.503349 -0.656882 2.057406 255 251 243
4.122114 0.244553 2.023720 255 235 231
4.346961 -0.263113 1.970062 255 246 237
4.087824 -0.750752 1.980656 234 220 209
3.736991 -0.041112 2.072451 213 212 210
3.515439 0.759595 2.121678 221 216 210
3.548208 0.127229 2.098788 244 240 231
4.348609 0.084614 1.986252 144 126 116
3.762525 0.125425 2.069409 108 94 85
3.636547 -0.165050 2.080816 255 228 222
3.295341 0.100958 2.128497 251 244 238
4.419757 0.148364 1.985386 123 124 119
4.395007 -0.362417 1.951198 255 252 243
3.743817 0.065866 2.075123 245 226 219
4.657799 0.381677 1.947452 233 222 216
3.521253 -0.074419 2.097933 255 253 248
4.132916 0.941721 2.047506 150 159 158
3.727439 -0.155043 2.059348 255 244 236
3.733621 -0.094215 2.071828 255 250 240
3.658483 0.696228 2.103145 255 252 244
3.281805 0.388725 2.138453 217 181 183
4.513027 0.079541 1.949654 255 251 242
4.402721 0.904884 2.001817 86 85 83
4.280461 -0.476328 1.962821 255 247 240
4.676679 -0.208371 1.920905 153 140 132
4.131960 -0.000525 2.009154 125 104 99
3.671815 0.668685 2.099673 255 248 242
4.040596 0.085130 2.031513 252 225 214
4.446643 -0.242467 1.950381 255 243 235
3.942537 0.450479 2.063303 93 89 80
3.702183 0.626149 2.091301 148 129 123
3.579364 0.706104 2.110004 140 106 97
3.963274 -0.504216 2.008417 255 250 243
4.125019 0.087540 2.020807 131 108 100
4.350688 0.008856 1.978222 115 100 95
3.519506 0.005736 2.100865 249 231 229
3.509900 0.909542 2.125481 255 250 237
4.406593 -0.086161 1.969236 95 94 92
3.603220 -0.635445 2.040743 255 252 243
4.496154 0.699430 1.986262 97 79 75
3.473239 0.549754 2.117857 132 109 101
3.503215 0.722214 2.120221 236 213 207
4.182793 -0.046283 2.008548 255 250 244
4.177765 0.333352 2.022956 240 227 221
3.520049 -0.078129 2.099830 93 87 87
4.104577 0.533848 2.039382 219 206 200
4.528183 -0.188227 1.946020 255 251 248
3.671767 0.927682 2.105551 190 190 188
3.972189 0.257473 2.049045 101 93 90
4.193846 -0.578510 1.967292 138 117 112
4.430094 -0.178570 1.958713 255 238 230
4.199567 0.632428 2.025220 110 96 87
4.199804 0.159876 2.014268 255 252 249
3.950351 0.223705 2.059973 81 70 64
3.617326 -0.303030 2.072837 253 233 226
3.781195 -0.736242 2.015893 60 49 43
3.793361 0.341358 2.082945 118 103 100
3.628299 0.931007 2.113778 213 222 217
4.384552 -0.483828 1.946959 255 254 248
3.769729 0.496957 2.082239 153 136 128
4.298447 0.852229 2.020396 111 97 94
3.940820 0.003179 2.042089 237 233 222
4.667617 0.219945 1.938693 142 127 122
4.175086 0.138100 2.018218 114 115 110
3.908557 0.010758 2.048864 126 103 97
4.663916 0.000696 1.931478 121 98 92
4.259060 0.550630 2.015621 109 81 77
4.347544 0.080706 1.979283 164 146 136
4.180675 0.199270 2.019031 251 234 227
3.968665 -0.066162 2.035010 255 253 237
4.509031 0.217736 1.966681 254 245 236
4.014019 0.267927 2.043105 255 244 238
4.623858 -0.232730 1.930276 220 206 205
3.733331 -0.037863 2.080427 255 254 244
4.290469 -0.114239 1.984951 88 81 73
3.173132 0.623476 2.154014 139 132 124
4.120821 0.346109 2.024632 115 95 88
4.307278 0.087638 1.986699 255 249 242
4.107701 0.211012 2.028948 113 108 105
4.062714 -0.101188 2.031979 205 202 195
4.660126 0.867121 1.973985 199 198 194
4.151938 -0.209884 2.001596 255 245 238
