ply
            format ascii 1.0
            element vertex 98875
            property float x
            property float y
            property float z
            property uchar red
            property uchar green
            property uchar blue
            end_header
4.701652 0.646270 1.975700 112 91 90
4.228489 -0.025610 2.018679 231 211 204
3.226475 0.360651 2.178329 248 234 233
4.202977 -0.331929 2.009222 134 120 111
4.007430 0.351705 2.071757 254 234 225
3.187883 0.540932 2.177709 128 109 102
4.091111 -0.661468 1.999805 255 255 250
3.833359 0.082355 2.087274 246 229 221
4.181180 -0.196647 2.023869 230 220 211
3.803475 0.341532 2.110727 118 103 100
3.186275 0.011664 2.174519 112 107 111
4.562430 -0.267110 1.952966 250 230 223
3.420835 -0.335207 2.137152 240 215 208
4.430357 -0.333878 1.980300 69 66 61
4.000601 0.288111 2.074946 205 195 186
4.523921 0.100137 1.978628 255 250 244
4.224755 -0.169291 2.018557 143 119 117
4.024453 0.267803 2.068339 255 244 238
4.405180 0.585563 2.006799 237 223 210
3.847736 0.305464 2.106803 104 101 96
4.215590 0.634267 2.047385 114 99 94
4.562591 0.738113 1.991920 84 75 68
3.818246 -0.164763 2.081524 128 109 102
4.143980 0.120304 2.042349 255 246 238
3.761645 -0.077216 2.100625 132 107 100
4.625363 0.302302 1.972499 254 247 239
4.285069 0.374082 2.037085 248 245 238
3.526919 -0.352902 2.109505 228 229 224
3.833063 0.625369 2.107688 255 249 240
3.890029 0.096579 2.084771 149 134 129
3.917456 0.707023 2.097605 141 113 110
3.723660 0.820222 2.124154 131 116 109
3.508757 0.920133 2.155884 216 204 192
4.239549 0.636574 2.044357 123 102 97
4.087342 -0.501118 2.011222 255 239 229
4.107203 -0.030689 2.038756 135 117 107
4.041005 0.307777 2.066758 118 85 78
4.405505 0.005783 1.995290 113 102 98
3.594231 0.007112 2.123830 255 249 242
3.745118 0.574847 2.122172 234 205 197
4.466797 0.084400 1.980971 114 100 97
3.738449 -0.179432 2.089551 255 253 244
3.340017 0.165638 2.156204 255 233 229
3.410717 0.622195 2.169695 88 78 79
4.636542 0.781725 1.988090 85 75 74
3.967325 0.066741 2.076460 76 77 72
3.846029 0.206009 2.098775 254 235 229
3.642339 0.227014 2.120497 141 122 116
4.209166 0.000606 2.029724 112 87 82
3.738259 0.092944 2.116947 78 77 75
3.997879 -0.735478 2.014236 43 30 22
3.943559 0.006508 2.067864 114 93 88
3.479911 0.573840 2.153740 255 253 244
3.843373 -0.307402 2.068802 134 117 109
3.745224 0.865413 2.127846 227 217 205
4.113319 -0.240794 2.028884 255 234 229
3.737744 0.065242 2.118384 250 247 242
3.398942 0.312096 2.156670 40 31 36
4.401287 0.229265 2.007650 255 251 242
3.685622 -0.317728 2.093939 255 249 238
3.713765 0.767476 2.128356 251 234 224
3.301143 0.754247 2.179641 92 75 68
4.532011 -0.203638 1.964527 249 234 229
4.394840 0.430033 2.011777 255 254 242
3.124467 0.117736 2.182922 232 221 215
3.827875 0.222684 2.096776 124 101 95
3.966639 0.864474 2.096748 203 203 195
3.889019 0.165641 2.089442 249 228 223
3.733284 0.160341 2.116564 106 81 76
3.702630 -0.111841 2.103331 224 201 193
3.851258 -0.267965 2.071370 95 74 69
3.754136 -0.159245 2.086620 94 74 65
3.393531 -0.095699 2.141543 110 91 85
3.914014 0.342684 2.088293 137 108 102
3.948752 0.928874 2.093418 63 57 45
4.158367 0.028400 2.029256 146 123 115
3.917854 0.465130 2.092288 122 93 85
3.627327 0.248025 2.123135 255 237 230
3.352685 0.786763 2.168498 132 112 105
3.639110 0.845548 2.143858 79 75 76
3.922581 0.472469 2.094468 255 240 231
4.072525 0.168154 2.056250 255 246 243
3.716457 -0.247798 2.093391 109 84 79
3.335394 0.165180 2.161541 255 251 246
4.053334 0.804676 2.076471 115 95 86
4.015840 0.316183 2.076229 118 81 73
4.197165 0.770514 2.053177 255 254 244
4.333846 -0.306958 1.983760 253 235 225
3.500354 0.382778 2.150976 255 238 231
3.344352 0.779195 2.171900 238 219 202
3.726001 0.767638 2.128695 239 220 213
3.581738 0.817150 2.143382 249 234 227
3.402059 -0.113589 2.138455 37 28 29
4.483593 -0.007037 1.976160 142 124 120
3.982801 0.130171 2.072852 255 251 241
4.054796 -0.599813 2.014206 131 103 99
3.983247 0.564612 2.082952 255 245 241
3.469946 -0.090423 2.126426 229 206 198
3.292775 0.294943 2.171427 156 135 134
3.593496 0.508856 2.135079 119 102 95
4.414421 0.907199 2.023268 86 85 83
4.626302 -0.158794 1.951859 112 97 90
3.422029 -0.341026 2.129553 215 189 188
3.914569 0.073577 2.078184 255 251 244
4.096556 -0.584876 1.999310 170 141 137
4.341401 -0.434920 1.980879 129 104 97
3.521627 -0.659269 2.087307 255 247 242
4.440751 -0.445806 1.961727 135 126 119
3.628141 0.297154 2.127917 255 254 248
4.115567 0.071639 2.041472 155 131 129
3.516005 0.252011 2.138268 255 252 235
4.394009 0.412961 2.008058 255 252 248
4.150754 -0.402261 2.010674 121 96 92
3.920648 -0.062880 2.071115 255 240 233
4.298801 -0.465688 1.980565 246 232 223
4.334437 0.312713 2.015503 133 109 109
4.340670 0.870967 2.035301 108 91 83
3.914594 0.342987 2.091431 137 108 102
3.312792 0.049880 2.161828 176 179 168
4.233768 -0.315644 2.001891 101 82 76
4.194039 0.091727 2.035282 255 244 238
4.522468 0.535291 1.996203 251 249 236
3.082458 -0.061900 2.181443 255 253 241
4.219211 0.102236 2.022913 125 104 99
4.006387 0.439675 2.078428 120 103 95
4.082846 -0.273757 2.037932 254 254 252
3.392038 0.363767 2.155928 103 96 90
4.197297 -0.094597 2.032121 229 231 228
4.322867 -0.340636 1.988193 249 235 226
3.403283 0.377887 2.161017 146 123 117
4.342430 0.135862 2.005303 255 236 229
4.401999 -0.221637 1.978495 249 234 229
4.005516 -0.231825 2.047165 255 253 244
3.924916 0.471022 2.089334 140 110 100
3.725965 -0.584607 2.060598 80 64 51
4.342406 -0.162453 1.993634 255 249 243
4.311630 -0.166982 2.004891 119 94 90
3.717200 0.309224 2.112966 121 104 97
3.889256 0.049649 2.086221 213 205 194
3.996472 -0.008987 2.059302 135 117 113
4.515213 -0.074389 1.968718 106 95 91
3.833032 0.191401 2.107848 255 252 247
4.011428 0.256495 2.071490 255 249 241
3.840146 0.486673 2.101819 102 75 66
3.958225 0.609593 2.096845 236 232 229
3.525073 -0.052559 2.127210 101 98 93
4.625358 0.393938 1.975713 255 255 250
3.373290 0.056768 2.154957 107 88 84
3.307040 -0.364546 2.137934 82 67 70
4.022954 0.452388 2.075391 249 241 230
4.407423 -0.021106 1.991060 119 104 99
3.471387 0.418961 2.153178 248 234 225
4.518628 0.155660 1.984770 101 84 77
4.344143 -0.289619 1.990722 149 134 129
4.701652 0.646270 1.975700 112 91 90
3.186022 0.511887 2.185130 225 207 205
3.640528 -0.309008 2.102092 214 205 206
3.447485 -0.010122 2.138778 118 95 87
3.823212 0.245037 2.099251 255 248 244
4.229767 0.811427 2.046241 116 98 88
3.505109 0.109330 2.137264 255 237 232
4.691680 -0.061611 1.944983 255 255 239
4.117269 -0.296568 2.026640 115 85 77
4.176633 -0.007225 2.027977 127 102 95
4.148808 0.861343 2.069741 117 118 110
3.859938 -0.548221 2.046655 255 251 242
3.846681 0.876622 2.107786 255 247 248
3.526917 -0.078475 2.126765 121 121 121
3.530391 -0.024034 2.129574 255 252 246
4.411438 0.715360 2.020547 43 37 39
3.659111 -0.126081 2.108829 253 239 228
3.938375 0.862126 2.097912 127 113 110
3.688092 0.933723 2.135627 83 87 90
3.243397 0.487074 2.176473 126 113 107
4.223662 -0.202195 2.008486 255 244 237
3.772239 -0.334841 2.076876 145 126 120
3.773156 -0.190115 2.082727 236 206 196
4.449061 0.488890 2.003885 255 247 241
3.635227 0.034174 2.118726 255 251 244
4.347743 0.407801 2.021464 100 76 72
3.978552 0.768233 2.087667 253 227 212
4.530224 -0.101725 1.973154 241 228 220
4.162234 0.465658 2.058426 242 244 239
3.529564 0.703802 2.155173 62 43 45
4.628111 0.141644 1.967769 247 255 250
3.623951 0.281113 2.128556 248 225 217
3.480179 0.606197 2.154546 195 187 176
3.687193 -0.372132 2.080747 111 88 80
4.530975 -0.201781 1.966238 128 115 109
3.520055 0.903768 2.157964 243 241 226
3.532425 -0.101130 2.127527 255 250 242
4.134578 0.087101 2.041338 131 108 100
3.392036 0.842930 2.168912 241 228 219
3.644352 0.831752 2.137683 228 211 203
3.526840 -0.032179 2.133222 51 47 44
3.413368 0.655011 2.164540 219 200 194
3.623877 0.281082 2.126817 248 225 217
3.917854 0.465130 2.092288 122 93 85
4.125942 0.239142 2.045803 112 85 76
4.518603 0.061852 1.981947 251 252 247
3.337221 0.898016 2.178186 245 235 226
3.738886 -0.097730 2.097269 204 189 182
4.497561 -0.074569 1.970291 128 119 112
3.646769 0.699704 2.136012 114 84 82
3.428581 0.353879 2.153903 132 109 101
3.407392 0.559405 2.163013 114 107 101
3.621609 0.303316 2.136439 255 251 249
3.308105 0.885049 2.182753 238 232 218
3.672258 -0.340680 2.096066 147 134 128
3.797109 -0.648446 2.045484 120 106 97
4.348202 -0.072253 1.996353 157 142 135
4.299278 -0.478133 1.981905 245 236 239
3.971143 -0.055599 2.070413 105 104 102
4.302612 0.245991 2.019378 255 245 240
3.472547 0.605474 2.155111 223 213 203
3.300769 0.732702 2.179825 225 212 203
3.519259 -0.194777 2.130949 80 75 71
3.731744 -0.135849 2.098316 255 244 238
4.249183 -0.501090 1.986241 230 219 213
3.601521 0.793450 2.146620 118 100 96
3.992812 0.335296 2.077093 255 232 228
3.976412 0.020040 2.063611 246 221 214
4.248326 0.078600 2.022686 152 123 115
3.671188 -0.239135 2.093124 113 83 75
4.523031 -0.067927 1.971178 120 109 105
4.231212 -0.065711 2.023518 115 96 89
4.094582 0.162102 2.048777 255 249 242
3.911517 0.588489 2.094838 108 89 82
4.515794 0.471494 2.001314 212 212 210
4.624952 0.099888 1.965338 255 249 236
3.300300 -0.210148 2.145603 242 238 229
3.753432 0.919375 2.127450 255 231 227
3.390789 0.705191 2.168199 140 111 105
4.027771 0.313245 2.073245 152 135 128
4.441984 0.077226 1.982861 123 105 95
4.409655 -0.233625 1.988760 89 78 86
4.194427 -0.040614 2.025799 104 104 104
3.812314 0.231547 2.097679 255 251 243
4.266155 -0.420471 1.990587 230 224 208
3.582832 0.806983 2.147048 253 236 228
4.521273 -0.323187 1.964320 255 244 241
3.413205 0.517072 2.159588 235 216 210
3.685322 -0.327255 2.090955 252 240 228
3.437208 0.081974 2.142712 255 247 241
4.524169 0.097551 1.979874 109 88 85
4.428146 0.005187 1.991877 255 249 246
4.157185 0.796711 2.063662 253 233 224
4.634291 -0.187096 1.953940 111 101 102
4.517781 0.003886 1.971661 247 230 223
3.516288 0.553158 2.146879 255 247 241
3.300155 -0.412606 2.130980 150 127 121
4.189079 -0.719516 1.987988 253 236 229
4.062017 0.272929 2.064118 255 241 237
4.130542 0.165641 2.045661 144 134 133
4.106374 0.940189 2.073008 121 131 132
4.521427 0.792515 2.010488 239 238 234
3.783676 0.063366 2.095050 126 108 106
3.234101 0.319924 2.171799 234 215 209
4.094194 0.151207 2.054466 163 142 137
3.768676 -0.278778 2.077212 255 238 230
4.517502 -0.167376 1.977967 255 251 248
3.986126 0.332012 2.078011 255 242 236
4.258990 -0.321402 2.000869 255 244 237
3.520357 0.545882 2.151133 255 255 250
3.827541 -0.170762 2.081459 255 247 239
4.288519 -0.430830 1.985736 255 246 239
4.520483 0.742379 2.002798 71 57 54
4.401789 0.140013 2.008942 47 28 32
4.425882 0.937721 2.026101 38 33 30
4.083610 0.400351 2.063004 248 235 229
4.219385 0.103777 2.029946 244 227 219
3.568390 -0.635457 2.077452 116 93 87
4.452736 -0.054700 1.984539 255 250 248
3.647542 0.694873 2.139036 233 233 225
4.620018 0.449734 1.978148 201 201 201
3.183049 0.459104 2.190874 67 56 60
4.269537 -0.328590 2.002375 255 247 237
3.744951 -0.065144 2.100574 118 114 115
4.631358 0.098973 1.966709 250 246 245
4.041670 -0.245213 2.041039 108 99 92
4.270363 -0.325826 1.998741 255 246 240
4.485791 -0.239123 1.970972 105 91 82
3.909936 0.048816 2.078828 219 194 187
3.644929 0.701312 2.141069 144 110 109
4.299364 0.215807 2.019345 228 213 208
4.213531 -0.403050 1.996793 117 87 79
3.617867 0.243340 2.130270 98 84 75
3.992908 0.222932 2.071522 155 130 125
4.004315 0.604957 2.079865 120 90 88
3.405746 0.427478 2.157694 241 224 217
3.512007 -0.660250 2.088421 255 251 243
4.132728 0.244331 2.047781 255 235 231
4.357645 -0.265197 1.991372 255 246 237
4.097607 -0.754419 2.004685 234 220 209
3.746750 -0.042299 2.101009 213 212 210
3.525077 0.761345 2.152788 221 216 210
3.557610 0.126678 2.129762 244 240 231
4.359575 0.083769 2.007718 144 126 116
3.772379 0.124829 2.097856 108 94 85
3.646010 -0.166653 2.110357 255 228 222
3.304119 0.100352 2.162423 251 244 238
4.430963 0.147743 2.006024 123 124 119
4.405763 -0.364917 1.972213 255 252 243
3.753625 0.065071 2.103392 245 226 219
4.669468 0.381879 1.965331 233 222 216
3.530513 -0.075691 2.128922 255 253 248
4.143979 0.944055 2.071651 150 159 158
3.737011 -0.156661 2.088185 255 244 236
3.743353 -0.095593 2.100429 255 250 240
3.668410 0.697698 2.132520 255 252 244
3.290688 0.389213 2.172567 217 181 183
4.524449 0.078639 1.969737 255 251 242
4.414421 0.907199 2.023268 86 85 83
4.290834 -0.479160 1.984921 255 247 240
4.688035 -0.210346 1.938542 153 140 132
4.142394 -0.001626 2.033008 125 104 99
3.681745 0.670052 2.128877 255 248 242
4.050959 0.084350 2.056396 252 225 214
4.457660 -0.244562 1.970966 255 243 235
3.953001 0.451029 2.089570 93 89 80
3.712119 0.627352 2.120115 148 129 123
3.589092 0.707633 2.140311 140 106 97
3.972986 -0.507018 2.033922 255 250 243
4.135568 0.086751 2.044780 131 108 100
4.361661 0.007731 1.999860 115 100 95
3.528805 0.004754 2.131884 249 231 229
3.519585 0.911841 2.156677 255 250 237
4.417692 -0.087659 1.990318 95 94 92
3.612049 -0.638693 2.070447 255 252 243
4.508091 0.700984 2.006820 97 79 75
3.482649 0.550760 2.149466 132 109 101
3.512788 0.723835 2.151475 236 213 207
4.193380 -0.047560 2.031826 255 250 244
4.188561 0.333435 2.046350 240 227 221
3.529325 -0.079415 2.130848 93 87 87
4.115329 0.534660 2.063622 219 206 200
4.539283 -0.190101 1.965343 255 251 248
3.681805 0.929975 2.134778 190 190 188
3.982563 0.257319 2.074894 101 93 90
4.203887 -0.581631 1.990168 138 117 112
4.441011 -0.180387 1.979207 255 238 230
4.210517 0.633589 2.048392 110 96 87
4.210550 0.159333 2.037383 255 252 249
3.960740 0.223435 2.085958 81 70 64
3.626612 -0.305121 2.102562 253 233 226
3.790364 -0.739894 2.043680 60 49 43
3.803475 0.341532 2.110727 118 103 100
3.638287 0.933390 2.143791 213 222 217
4.395175 -0.486752 1.968006 255 254 248
3.779796 0.497701 2.110426 153 136 128
4.309753 0.854205 2.042547 111 97 94
3.950932 0.002130 2.068061 237 233 222
4.679802 0.219580 1.957516 142 127 122
4.185824 0.137486 2.041734 114 115 110
3.918633 0.009742 2.075210 126 103 97
4.675440 -0.000523 1.949396 121 98 92
4.270092 0.551485 2.038088 109 81 77
4.358423 0.079852 2.000704 164 146 136
4.191415 0.198871 2.042378 251 234 227
3.978817 -0.067477 2.060839 255 253 237
4.520381 0.217348 1.986341 254 245 236
4.024453 0.267803 2.068339 255 244 238
4.635152 -0.234806 1.948568 220 206 205
3.743146 -0.039025 2.108862 255 254 244
4.301237 -0.115797 2.007168 88 81 73
3.181785 0.624916 2.189563 139 132 124
4.131457 0.346253 2.048706 115 95 88
4.318180 0.086814 2.008790 255 249 242
4.118314 0.210672 2.053179 113 108 105
4.073131 -0.102634 2.056643 205 202 195
4.672401 0.869317 1.992974 199 198 194
4.162311 -0.211735 2.025178 255 245 238
3.787151 -0.650956 2.047565 126 109 102
4.189823 -0.566227 1.999027 100 94 94
4.417309 0.105616 1.999093 243 233 232
3.852353 0.263616 2.102804 255 251 244
3.984648 0.066166 2.070068 253 239 236
4.233127 0.013857 2.025224 120 91 85
4.148278 0.480289 2.055234 79 60 56
4.309027 -0.148704 2.006385 144 119 112
4.462370 -0.046417 1.983711 94 81 75
3.556272 0.930595 2.151701 177 188 182
3.934838 -0.014646 2.073489 239 220 213
3.621609 0.303316 2.136439 255 251 249
4.192574 0.067129 2.035266 255 254 251
4.073244 -0.576220 2.018854 213 205 202
3.815388 0.343405 2.107599 136 115 110
4.057244 0.230231 2.059290 149 120 112
3.752797 -0.024444 2.111357 218 217 215
4.320549 -0.009258 2.001752 136 109 102
4.180923 -0.332630 2.012861 121 101 92
3.755821 0.387321 2.110509 255 248 240
4.142308 -0.250182 2.027244 133 116 109
3.911586 -0.006912 2.073749 255 246 239
3.950200 0.328498 2.085121 255 245 241
4.511127 -0.159220 1.971410 116 99 91
4.310853 0.936812 2.042608 67 66 64
3.916267 0.466265 2.095742 253 224 216
3.753489 0.095039 2.101880 124 105 98
4.132532 -0.484635 2.006548 154 135 128
3.957387 0.393044 2.086415 59 51 49
4.035536 0.258973 2.062511 128 115 109
3.758417 0.927544 2.123631 55 47 45
4.410810 -0.017790 1.997103 252 251 247
3.199287 -0.349522 2.147456 255 252 239
4.515671 -0.318703 1.962194 71 54 72
3.992229 0.240168 2.076502 168 149 143
3.866028 0.417811 2.100384 141 124 117
4.516251 0.531666 1.995307 92 90 93
4.406718 0.138260 2.007820 247 255 255
4.119126 -0.139236 2.033669 135 108 97
3.997217 0.487338 2.077956 255 241 235
3.837211 0.143959 2.106280 90 86 83
4.101719 -0.296532 2.025758 117 84 77
3.859946 0.315237 2.096943 113 94 88
4.192215 0.158480 2.033250 162 151 149
3.684712 0.275003 2.125860 255 239 231
3.414129 0.657547 2.164506 247 230 223
4.055692 0.624898 2.075071 130 118 120
4.582604 0.938077 2.001746 241 222 218
3.200824 0.174784 2.176213 127 98 90
3.668056 0.699544 2.131809 119 91 90
3.713469 0.730410 2.123102 245 225 216
4.644091 -0.198710 1.949701 139 129 120
3.350917 0.780882 2.170580 243 227 212
3.841897 0.432082 2.102419 246 219 212
4.083539 0.402419 2.062071 103 90 84
3.855598 -0.333346 2.068108 255 254 248
3.584842 0.805918 2.147120 109 92 84
4.502782 0.093823 1.974071 255 248 243
3.842186 0.564781 2.107272 252 225 218
3.934138 -0.014475 2.069910 239 220 213
4.616389 0.400617 1.975018 255 251 244
3.526746 -0.360829 2.115895 233 229 226
3.516903 0.274981 2.141379 255 247 237
4.524798 0.182773 1.984598 82 70 74
3.881974 0.307454 2.096404 255 249 235
4.540847 -0.075911 1.968763 147 132 127
4.604182 0.301393 1.975797 255 255 251
4.183074 0.085069 2.034688 251 238 232
4.391782 -0.500398 1.968387 148 135 126
4.521188 0.098015 1.980065 255 251 244
3.416318 0.100970 2.142430 241 234 228
4.229381 0.173809 2.027577 101 83 79
4.211382 0.555595 2.040071 255 227 225
4.616884 -0.177423 1.949210 255 252 249
4.263353 0.217622 2.023525 189 181 179
3.785686 0.117011 2.095791 234 223 219
3.825205 0.257668 2.098001 117 99 95
4.408432 0.147865 2.012173 114 114 112
4.215588 0.708056 2.049098 107 82 78
4.137350 -0.589224 1.997041 249 225 221
3.070524 0.116226 2.194434 248 252 251
4.125702 0.534778 2.060154 236 223 217
4.252901 0.603694 2.042083 255 248 246
4.621381 0.398147 1.978128 66 51 56
3.395886 0.302028 2.155475 254 248 234
4.245841 -0.227701 2.009395 116 96 87
3.826023 -0.311456 2.064976 135 121 110
3.509660 -0.158249 2.122964 238 218 207
4.467476 -0.246827 1.969806 255 247 240
4.256523 0.635359 2.041030 108 93 86
3.123667 0.395858 2.187735 252 252 242
4.599579 0.080405 1.959160 85 70 63
4.436963 0.802182 2.016994 235 232 225
3.683248 0.019343 2.111053 120 91 83
3.809330 -0.077150 2.081604 255 248 238
3.315018 0.558226 2.175586 241 224 217
3.955691 0.135973 2.081435 245 244 240
3.762727 0.337573 2.111481 255 248 244
4.146158 0.864495 2.067955 103 88 85
3.966026 -0.030725 2.072433 219 214 208
3.986970 0.781751 2.087693 118 87 84
3.997165 0.918370 2.082591 124 105 99
4.629578 0.760192 1.992667 239 234 230
4.028992 0.322371 2.070975 255 246 238
4.189765 0.735603 2.060908 96 96 94
4.288520 0.244496 2.024696 123 106 99
4.162333 -0.116656 2.032378 255 246 239
3.994087 0.066881 2.067725 135 121 118
4.181361 -0.243106 2.019947 134 95 88
3.899269 0.393739 2.092666 117 83 74
4.056202 0.199216 2.061851 255 252 247
3.212274 -0.073385 2.163584 137 123 114
4.304468 0.252133 2.018208 117 96 91
3.775208 0.283520 2.105783 255 248 241
3.847847 0.259895 2.102853 255 243 236
3.608118 -0.175640 2.111248 97 64 59
4.287771 -0.566441 1.975307 248 235 227
4.180513 0.676859 2.054498 255 248 243
3.184589 0.451841 2.191097 253 255 244
3.384421 0.112187 2.151726 255 229 221
3.926666 0.449167 2.089653 248 225 217
3.061811 -0.041680 2.196525 74 67 59
3.353262 0.461919 2.165026 147 118 110
3.856210 0.370790 2.104276 237 207 199
3.839534 0.523523 2.103855 129 111 97
4.516109 0.187822 1.981443 103 93 92
4.194719 0.703608 2.054338 255 247 238
4.189274 0.336097 2.044486 128 115 109
3.920887 0.348107 2.089235 121 94 87
4.290005 0.307083 2.028750 233 238 232
3.849046 0.258331 2.103222 123 108 103
3.063771 0.391270 2.196660 229 222 214
3.561435 0.677130 2.141817 149 129 120
4.070852 0.331204 2.063755 233 214 208
4.108624 0.325017 2.058669 111 89 78
3.322104 0.842602 2.178710 194 180 177
3.202233 0.770779 2.188818 255 249 240
4.217969 0.635938 2.047748 88 77 71
4.342406 -0.162453 1.993634 255 249 243
3.619932 0.824427 2.143114 238 224 215
4.513446 0.174887 1.980652 227 223 212
3.563493 0.805181 2.147355 221 206 199
3.814585 0.228075 2.100569 240 216 206
3.283845 0.152702 2.164003 117 104 98
3.807207 0.464229 2.110006 255 245 238
4.520892 0.633769 1.999155 84 62 65
3.155912 -0.362543 2.150231 249 235 234
3.720561 -0.209310 2.087308 126 98 87
3.616675 0.357250 2.129891 138 121 114
4.407945 0.109776 2.002324 110 109 107
3.489600 0.553241 2.151853 243 229 220
3.409836 -0.423232 2.116984 146 121 114
3.902833 0.288482 2.091966 243 213 203
4.498676 0.099167 1.984117 115 102 96
4.560844 0.945801 2.008476 247 255 255
4.389646 -0.122074 1.991473 165 148 141
4.661201 0.555786 1.971958 255 240 234
3.962376 -0.411573 2.039903 142 107 103
3.995086 0.152273 2.071128 255 240 233
3.235112 0.438090 2.178121 85 67 63
3.912007 0.275440 2.090463 114 94 87
3.640349 -0.279567 2.096348 249 233 233
4.192215 0.117899 2.031772 242 236 236
4.085199 0.815083 2.073241 255 251 236
4.626460 0.124723 1.961793 237 237 235
4.567792 0.940249 2.004871 74 60 60
4.004628 -0.668299 2.014048 255 229 223
4.030456 0.842158 2.081096 115 97 87
4.583076 -0.179460 1.953301 235 230 226
4.664297 0.883921 1.989789 105 90 83
3.926612 0.309173 2.084971 251 226 219
3.667486 -0.403536 2.089404 140 123 115
3.636093 -0.004034 2.117002 255 242 242
3.976224 -0.008532 2.062094 104 86 82
3.061965 0.384342 2.198119 65 48 54
3.400403 0.042984 2.148042 54 53 49
3.981184 0.255858 2.076534 254 247 241
3.686789 -0.374048 2.080600 255 248 240
4.190409 -0.661322 1.992104 212 207 204
3.059326 0.215571 2.196363 74 59 62
4.386453 -0.322445 1.975891 255 250 246
3.728521 0.220331 2.121174 176 151 147
4.183413 0.874499 2.056658 132 109 103
4.627955 0.124764 1.964431 237 237 235
3.518543 0.924071 2.160798 199 207 196
3.804626 0.463440 2.110590 234 206 202
4.079584 0.467865 2.072789 45 36 39
3.526208 0.498680 2.143932 249 236 228
4.188388 0.576194 2.050728 249 230 226
3.870410 0.828212 2.102802 234 216 204
4.297773 0.190511 2.023917 131 102 98
3.530071 -0.102838 2.125322 60 51 52
4.112554 -0.238473 2.029580 118 89 83
3.820597 0.224305 2.105391 116 93 87
3.855806 0.044406 2.089009 69 57 59
3.264462 0.329476 2.172432 237 222 219
4.061061 0.271298 2.063880 123 106 99
3.927931 0.007607 2.071918 104 81 73
3.817833 -0.317646 2.070363 249 235 224
4.391782 -0.500398 1.968387 148 135 126
3.738947 0.383967 2.117604 255 242 239
3.526053 -0.578029 2.096926 123 112 110
4.406615 0.712677 2.018655 255 254 248
4.654963 -0.218591 1.944419 160 140 133
4.512204 0.151505 1.990699 219 219 217
4.207112 0.159224 2.037230 255 248 246
3.312831 0.055981 2.152421 255 255 243
3.867193 0.722268 2.103483 90 79 77
4.337089 -0.163968 1.993736 255 244 239
4.204209 -0.325642 2.003666 233 222 216
3.767193 -0.003932 2.103121 255 245 238
3.702263 0.684200 2.127555 137 112 105
4.075518 0.414211 2.064185 104 93 89
4.348959 0.084775 2.008288 255 248 241
4.148335 0.275881 2.050896 255 251 244
3.665845 0.015736 2.114198 255 235 230
3.667486 -0.403536 2.089404 140 123 115
4.306042 0.045574 2.016178 249 239 237
3.709621 -0.144159 2.099954 135 120 113
3.736399 -0.179082 2.094903 125 110 103
3.993355 0.150893 2.070455 125 100 93
4.516036 -0.103691 1.976006 231 232 226
4.343676 -0.062815 2.004375 255 252 244
4.253604 0.334452 2.030915 252 233 226
4.235720 0.940316 2.046474 244 250 250
3.668123 0.718493 2.128348 148 125 119
4.056239 0.783377 2.073963 134 101 94
4.476461 0.109017 1.987384 108 91 84
3.593851 0.248267 2.134055 255 243 242
3.956777 0.592013 2.090264 255 253 245
4.211850 0.477177 2.043728 255 240 236
4.066685 0.233249 2.060415 255 234 229
4.201234 -0.502253 1.998611 251 245 233
4.075843 0.257314 2.054176 123 108 103
4.041759 0.096244 2.056574 255 248 238
4.332640 -0.321266 1.992798 122 97 90
3.339028 0.897707 2.177463 109 96 90
3.754113 -0.669169 2.053676 230 213 203
3.977625 0.805739 2.087217 104 85 78
3.749965 -0.149719 2.088020 147 128 122
3.717745 -0.120223 2.096025 255 238 228
3.255800 0.718407 2.178371 235 220 213
4.048750 0.808078 2.077885 114 96 86
3.449345 0.074321 2.144992 96 77 73
4.378993 0.099474 1.998591 255 251 243
3.859667 0.523900 2.100695 255 240 226
3.668485 0.281107 2.124948 246 219 212
4.296339 -0.472157 1.988090 95 94 92
4.186372 0.945553 2.054642 155 167 165
3.862467 0.790381 2.115495 232 227 223
4.374832 -0.128208 1.996971 255 250 241
3.758827 0.794569 2.118607 255 250 242
4.644091 -0.198710 1.949701 139 129 120
3.883458 0.311861 2.096351 247 228 222
4.222195 0.750576 2.049709 110 91 85
3.911294 0.356330 2.093528 248 218 210
3.802954 0.403048 2.105694 126 104 93
3.657043 0.401228 2.124019 141 121 114
4.218545 -0.281336 2.007681 255 250 241
4.328040 0.606093 2.029239 254 240 231
3.854539 0.527718 2.109285 233 228 224
3.792767 0.067005 2.098925 255 249 240
3.303456 -0.206544 2.148082 65 60 57
3.964042 0.262630 2.079799 142 116 103
4.633938 -0.236837 1.954466 203 199 200
4.006567 -0.230932 2.043833 255 249 240
4.359575 0.083769 2.007718 144 126 116
4.007471 0.565887 2.078227 255 243 235
4.308824 0.809653 2.040311 219 216 211
3.820630 0.483526 2.104628 255 248 242
4.112554 -0.238473 2.029580 118 89 83
3.980359 0.308752 2.079351 110 86 74
4.633937 0.870052 1.999353 234 236 231
3.994087 0.066881 2.067725 135 121 118
3.758827 0.794569 2.118607 255 250 242
4.475952 0.235407 1.986735 233 231 232
3.398610 0.434975 2.157649 131 107 103
4.231638 0.010008 2.025852 255 240 233
4.213477 -0.201963 2.018456 255 239 230
4.035536 0.258973 2.062511 128 115 109
4.177973 0.731246 2.056922 137 114 106
4.117922 0.226758 2.047271 108 89 83
4.406056 0.091208 1.996292 99 95 96
3.803792 0.327866 2.112163 232 215 208
4.097387 0.072817 2.050323 123 104 100
4.532599 -0.284587 1.961561 170 142 131
3.928259 0.235982 2.084198 127 104 98
3.754690 0.069306 2.107294 255 244 237
4.200870 0.133237 2.032290 209 202 194
4.099388 0.085266 2.049126 255 245 237
4.183521 0.881263 2.056842 120 92 88
4.400579 -0.388994 1.968655 255 234 223
3.511153 -0.161944 2.117866 252 235 227
4.274049 0.053023 2.016830 103 78 73
3.299484 -0.258307 2.147506 255 250 234
4.228898 -0.583105 1.988177 135 105 95
3.826023 -0.311456 2.064976 135 121 110
3.654618 -0.178574 2.106004 165 144 141
4.050416 0.092789 2.054121 143 123 116
4.406302 0.109037 1.998580 109 107 108
3.508804 0.255315 2.144203 78 74 71
3.932317 0.451088 2.089588 106 86 77
4.292945 -0.201692 2.000757 255 246 236
3.981297 0.266566 2.078295 250 237 231
3.805293 0.366861 2.111852 138 114 102
3.564652 0.505001 2.137094 126 115 109
3.407406 0.559096 2.161704 114 107 101
4.334889 0.108206 2.004839 137 114 106
4.516591 -0.062637 1.970733 255 243 234
4.445142 0.079992 1.980696 128 115 106
3.819510 0.224073 2.096462 116 93 87
3.754592 -0.167648 2.085103 115 92 84
3.894867 0.572519 2.096407 120 95 88
3.777532 0.490948 2.116980 255 250 243
4.300642 -0.553000 1.978510 145 123 112
3.286252 0.218866 2.171013 90 78 80
3.075244 -0.108826 2.188697 88 89 84
3.965786 0.702869 2.093398 255 253 249
3.787680 -0.141684 2.088880 255 245 240
4.196905 0.094460 2.034381 134 110 106
3.962930 0.771412 2.094346 98 88 79
3.282614 0.236549 2.170893 223 217 217
3.411569 0.039920 2.147772 204 184 175
3.527323 -0.047244 2.129055 114 107 101
3.719632 -0.312504 2.084008 241 227 218
3.406842 0.033408 2.147784 110 106 105
4.308105 -0.553384 1.976564 121 98 90
3.642468 -0.756350 2.060898 216 197 190
3.773316 -0.126900 2.086665 124 105 98
3.966714 0.389734 2.080711 122 104 90
3.860630 0.317242 2.098815 255 239 232
3.403980 0.052515 2.154659 93 96 89
3.728521 0.220331 2.121174 176 151 147
3.790851 -0.140106 2.090430 255 240 233
3.721239 -0.629056 2.053156 135 115 106
4.507297 0.059317 1.980591 243 231 219
3.304364 -0.104462 2.159280 121 120 116
3.054353 0.241924 2.191826 160 126 116
3.847173 0.877774 2.111067 255 247 248
3.973168 0.892782 2.091628 255 243 233
3.560838 0.508693 2.135040 242 233 228
3.780200 0.501087 2.114685 254 234 225
4.204577 0.309282 2.039195 154 130 126
3.503644 -0.170238 2.125966 255 239 227
4.313086 -0.010960 2.010251 143 128 131
4.050717 0.867922 2.075923 145 122 116
3.449345 0.074321 2.144992 96 77 73
4.517351 0.379311 1.991475 249 236 228
3.150069 0.193980 2.176847 246 233 224
4.249355 0.241310 2.030975 117 102 97
3.919517 0.485990 2.089677 108 85 77
3.552087 -0.015006 2.125163 129 108 103
3.661449 0.414810 2.123730 143 126 119
4.519686 0.075874 1.977586 141 129 115
3.481980 0.571515 2.151442 127 117 115
4.157034 0.037435 2.038078 250 225 220
3.742218 -0.030374 2.102205 248 247 245
4.511437 -0.117707 1.965275 245 231 222
3.514052 -0.030809 2.137604 234 235 230
4.299055 -0.257408 2.006518 120 113 107
3.917989 0.587180 2.093412 252 229 221
4.038827 -0.222304 2.043660 121 98 90
4.221634 0.498439 2.043137 57 38 34
4.616995 0.160844 1.963531 129 101 97
4.297427 0.036727 2.014919 92 86 86
3.168382 0.201113 2.183056 97 94 87
3.534945 -0.083048 2.125337 126 107 103
4.171745 0.306286 2.049092 255 251 248
4.109858 0.412740 2.052044 240 217 211
3.495569 0.447107 2.148100 198 183 176
3.848526 -0.433313 2.061268 255 249 246
3.657828 0.245551 2.126632 120 105 98
3.722599 0.578021 2.119725 255 246 235
4.290198 -0.268825 1.999977 142 117 112
4.053552 0.626083 2.074406 255 251 244
3.776930 0.073390 2.095489 148 133 126
3.332682 0.153385 2.160388 246 226 219
3.401214 0.038398 2.143096 227 228 220
3.333095 0.325170 2.163563 241 230 224
3.894724 0.281703 2.090369 255 234 225
4.071332 0.647051 2.073056 105 71 61
4.074025 -0.012158 2.049228 142 122 115
3.061965 0.384342 2.198119 65 48 54
4.120680 0.902532 2.070299 255 245 241
3.643401 -0.173846 2.110690 74 69 66
3.861640 -0.174107 2.076954 234 210 206
3.954809 0.614660 2.095618 102 98 89
3.709913 -0.137214 2.102573 248 231 224
3.745012 -0.068221 2.099775 98 94 95
4.116703 0.230207 2.048765 255 243 235
3.218832 0.637811 2.184731 236 221 214
3.141720 0.616791 2.191202 132 112 105
3.947404 -0.014973 2.068602 131 115 115
3.857348 0.926950 2.108761 183 171 171
3.826166 0.065295 2.094540 133 115 113
4.095362 -0.224971 2.030803 255 254 248
4.298801 -0.465688 1.980565 246 232 223
4.156078 0.501218 2.053777 104 89 82
4.406251 0.294050 2.003444 247 218 212
4.163625 0.259787 2.046870 249 227 216
3.379992 0.146834 2.152390 140 120 111
4.563598 0.078069 1.972789 255 250 241
4.298573 -0.470438 1.982733 229 218 216
4.015997 0.357516 2.075331 255 234 229
3.558486 0.499408 2.139761 250 240 231
3.566580 -0.180856 2.116080 158 130 129
4.294755 0.647903 2.037812 242 237 234
3.741205 -0.563652 2.064224 71 62 67
4.213487 0.338589 2.042188 246 235 229
3.489019 -0.554344 2.096511 148 123 119
4.633987 -0.180285 1.950358 254 249 245
3.523102 0.622728 2.144536 128 117 113
3.669926 0.010265 2.113503 128 103 96
4.082937 -0.735645 2.006432 54 49 43
3.658734 0.262884 2.118012 255 246 237
3.780200 0.501087 2.114685 254 234 225
3.329491 0.894691 2.180281 244 231 223
4.100084 -0.271658 2.030606 254 227 220
4.106274 -0.118691 2.039376 128 105 97
4.520488 -0.166838 1.967262 206 197 192
3.298413 0.757497 2.187480 246 229 219
4.099048 0.423356 2.056079 127 113 110
3.921187 0.421797 2.089042 104 83 78
4.107633 0.265749 2.055909 255 250 246
3.756201 -0.257780 2.085210 249 245 242
3.877922 0.259172 2.091459 133 113 106
4.229478 -0.583657 1.982555 255 235 224
4.178704 -0.093166 2.027766 146 132 123
4.147709 0.940861 2.071681 116 127 121
3.139280 0.384594 2.188975 120 106 103
3.530151 0.735378 2.150429 88 71 77
4.309778 -0.319909 1.986749 121 97 87
3.987728 0.550913 2.084019 118 83 79
4.356151 -0.079621 2.001566 255 247 238
3.357819 0.051320 2.151269 237 238 230
4.050416 0.092789 2.054121 143 123 116
3.861640 -0.174107 2.076954 234 210 206
4.298099 -0.196778 2.003770 119 96 88
3.647744 -0.115505 2.111582 114 96 86
3.994389 0.927657 2.087609 255 239 238
3.923911 0.938492 2.100647 96 100 101
4.425459 0.713961 2.012933 255 247 240
4.269479 0.563825 2.037369 247 230 222
4.638929 0.097038 1.958993 105 85 87
3.612713 0.486656 2.133032 154 137 129
4.009222 0.206474 2.073768 148 139 132
3.961214 0.434088 2.080374 255 238 225
4.013361 0.876287 2.080390 92 67 62
4.079543 -0.738670 2.004239 225 227 213
3.920154 0.469459 2.090319 124 94 83
4.043382 0.488311 2.073415 113 88 81
3.714644 -0.240236 2.087355 129 102 93
4.194891 -0.278619 2.015842 255 251 242
3.606092 0.028291 2.124232 131 101 91
4.300165 0.626967 2.030677 95 77 75
4.136795 0.254292 2.046473 147 124 118
3.980793 0.258417 2.079228 109 98 92
3.532280 0.278561 2.137359 123 102 97
3.465901 -0.011002 2.136807 110 90 83
3.831387 0.871704 2.110678 251 240 234
4.542021 -0.086174 1.963818 157 138 134
4.340798 -0.160001 1.989650 126 106 99
4.068308 0.147489 2.056402 177 139 128
3.684175 0.687866 2.129609 227 207 200
3.506936 0.721696 2.152782 255 242 236
3.952519 0.008101 2.068865 255 245 241
4.095362 -0.224971 2.030803 255 254 248
4.520291 -0.327123 1.969555 53 52 50
3.566323 0.502099 2.138911 148 135 127
3.291219 0.602713 2.178872 237 223 212
4.059007 0.266808 2.060741 255 249 244
3.337568 0.051656 2.166960 120 121 115
3.472085 0.471402 2.145963 125 109 94
3.721468 0.580937 2.121464 120 90 82
4.389646 -0.122074 1.991473 165 148 141
3.969792 0.706208 2.092516 48 29 35
4.181987 -0.174304 2.028291 255 245 243
4.048221 -0.363241 2.029959 162 148 145
3.751808 0.095991 2.108190 255 251 243
4.027422 0.323091 2.072995 105 85 76
3.813346 0.283994 2.102980 245 215 207
4.294498 0.054312 2.022258 78 65 59
4.082531 0.815393 2.070910 117 87 77
3.708428 -0.240231 2.087896 121 94 85
3.732321 0.312508 2.117559 255 251 244
4.289587 -0.297487 2.000766 121 101 94
3.640523 -0.288650 2.095987 239 235 236
4.038364 -0.220643 2.043521 255 247 240
3.552769 -0.342367 2.110415 242 222 215
4.058512 0.128166 2.058527 133 113 102
4.306259 -0.082179 2.003164 134 125 120
3.487327 0.520894 2.151135 255 250 240
3.398546 0.049561 2.160192 220 223 216
4.193094 -0.051170 2.030881 255 250 245
4.083870 -0.277685 2.038456 89 89 89
3.705876 -0.127863 2.096670 131 114 107
4.432161 -0.475867 1.965941 124 103 100
3.402906 0.640023 2.163250 89 64 67
3.781020 -0.140434 2.090896 134 121 115
4.181126 0.677292 2.056554 255 248 243
3.820720 -0.317928 2.068502 118 102 89
3.518321 0.002873 2.129328 101 86 81
3.512284 0.758976 2.152705 110 87 81
3.914759 0.339358 2.092734 124 97 90
4.097060 -0.636797 1.999149 114 88 89
4.030456 0.842158 2.081096 115 97 87
3.246161 0.563131 2.180813 139 128 122
3.745329 0.285876 2.113720 216 200 187
4.600966 0.289302 1.969395 252 247 227
3.689342 0.469105 2.126225 144 125 118
4.297437 0.864256 2.046743 114 103 99
4.074709 0.053979 2.061512 22 21 17
3.735570 0.327822 2.121017 126 106 99
4.187972 -0.242060 2.021251 97 93 94
4.445142 0.079992 1.980696 128 115 106
4.041759 0.096244 2.056574 255 248 238
4.098459 0.163747 2.051562 255 244 237
4.194891 -0.278619 2.015842 255 251 242
3.687215 -0.372348 2.081706 111 88 80
3.965423 0.332401 2.079347 120 95 90
3.759654 -0.255222 2.080343 92 68 68
4.386982 -0.473025 1.968500 125 110 105
3.518321 0.002873 2.129328 101 86 81
3.864494 0.460276 2.100198 255 253 244
3.750179 0.703535 2.123300 99 87 89
4.296326 -0.077443 2.004470 255 248 240
4.038620 -0.353386 2.033770 252 237 232
4.160295 0.932680 2.062417 78 63 60
3.526659 0.927619 2.156022 68 78 77
3.642112 -0.176204 2.113335 95 94 89
3.516714 0.060062 2.134092 82 83 78
4.194026 -0.197131 2.014179 138 119 113
4.065024 0.146934 2.060677 96 89 79
4.370394 0.098374 2.006133 120 100 91
4.009307 0.691188 2.081411 244 223 218
4.616428 0.172375 1.965826 101 86 81
3.732321 0.312508 2.117559 255 251 244
4.209153 -0.527873 1.992542 251 224 215
3.865722 0.935972 2.111586 51 53 50
4.356752 0.082957 2.006916 136 109 98
3.712536 0.484216 2.122631 255 242 235
4.515489 0.478792 1.998884 32 15 23
3.813226 0.069542 2.096583 136 123 115
4.132250 0.672070 2.061975 255 247 240
3.689741 -0.325404 2.087597 118 101 94
3.632972 -0.126474 2.108310 173 145 142
3.777470 0.283213 2.104415 123 99 95
4.413796 -0.018697 2.001283 219 218 216
3.890752 0.564867 2.096900 87 64 58
3.950165 0.313314 2.081270 255 236 229
3.753252 -0.252779 2.084314 245 232 226
3.671575 0.625467 2.129260 156 129 120
4.308712 -0.466933 1.981714 255 251 241
4.220339 0.328936 2.041759 111 98 90
4.418999 -0.081998 1.986383 240 226 226
4.001334 0.010694 2.058560 242 219 211
3.261060 0.724672 2.189180 139 122 115
3.965502 0.234592 2.079450 164 141 133
4.300366 -0.422044 1.987398 112 109 102
3.599812 0.795056 2.148877 255 242 235
4.190181 0.711658 2.062840 247 238 233
3.385600 0.116273 2.149877 103 74 66
4.580549 0.947454 2.006870 251 255 253
4.393147 -0.120924 1.993443 255 244 239
4.109470 -0.399411 2.019618 142 121 118
3.437138 0.504761 2.158031 130 113 105
4.613003 0.097622 1.961225 61 40 35
4.489936 -0.465848 1.957236 255 230 225
4.159303 0.018730 2.036551 141 116 109
3.857032 0.466595 2.107965 220 215 212
4.517385 0.507464 1.989227 255 253 241
3.573170 0.790403 2.145738 105 85 74
4.213679 -0.581248 1.987883 255 246 239
3.473541 -0.091544 2.126217 79 50 44
3.932199 0.728109 2.093724 255 249 240
3.864699 0.318255 2.097312 110 90 81
3.770090 -0.281495 2.082843 138 110 106
4.420873 -0.082534 1.983581 146 127 123
3.533336 -0.673485 2.084076 255 248 239
3.509060 -0.161066 2.127940 116 98 88
4.347620 -0.071235 2.001889 252 235 228
3.992588 0.068273 2.067621 255 244 239
4.055371 0.624748 2.073792 130 118 120
4.353701 -0.479183 1.973142 97 76 71
4.294197 -0.578716 1.976436 248 249 244
4.094440 0.396388 2.062755 255 248 242
4.553160 0.431591 1.986173 255 240 234
3.821802 0.477488 2.104713 139 112 105
4.313494 0.447016 2.028714 232 220 220
3.643543 0.810337 2.139700 255 247 239
4.101914 -0.379477 2.019349 132 117 112
4.494206 0.101484 1.975037 255 250 246
4.003966 0.208515 2.073137 255 252 243
3.834535 0.623870 2.108160 129 114 107
4.635500 -0.232765 1.950635 74 65 68
4.311062 0.449069 2.029142 126 110 110
4.024353 0.277319 2.069590 130 116 113
4.328040 0.606093 2.029239 254 240 231
3.416921 0.854587 2.178697 125 126 121
3.771869 0.714061 2.116889 250 230 223
4.054017 0.191798 2.063822 161 138 132
3.584043 0.279272 2.130897 223 200 192
4.419633 -0.023064 1.985838 81 63 51
3.358035 0.365173 2.175183 61 60 55
3.509060 -0.161066 2.127940 116 98 88
3.912075 0.710702 2.093733 119 89 87
3.991827 0.571240 2.081416 104 81 73
4.637475 -0.231276 1.950054 250 236 235
4.417344 -0.558846 1.965019 120 110 109
3.402730 0.625851 2.165143 250 223 216
3.832052 0.225524 2.105457 255 246 238
3.637835 -0.126769 2.117701 131 125 125
3.660515 0.266297 2.122819 131 113 109
4.268400 -0.289825 2.003774 255 247 240
4.623430 0.762133 1.999509 93 72 69
3.854708 0.255672 2.101769 122 107 100
4.681025 0.176861 1.952244 250 237 229
4.192638 -0.400097 2.007049 122 116 120
3.864493 0.410805 2.095996 255 245 240
3.888502 0.388218 2.097205 121 100 97
3.644995 0.268777 2.121228 130 111 104
4.291569 0.155471 2.020042 111 88 82
3.913936 0.449930 2.092627 141 122 116
3.506805 0.446890 2.150290 255 251 250
3.783607 0.020573 2.100594 255 250 244
3.812110 0.267614 2.108649 252 237 230
3.529112 -0.035443 2.132004 240 233 225
4.402293 0.081062 1.997275 255 253 243
3.851171 -0.490428 2.057077 239 230 223
3.849416 -0.289259 2.070874 148 128 121
4.354394 -0.381258 1.980578 130 110 103
3.872839 0.420816 2.095501 255 247 244
3.507489 0.506440 2.145827 243 230 224
4.406511 -0.396265 1.968491 255 248 241
3.393744 0.306151 2.164990 126 113 97
3.544484 0.113301 2.135531 134 115 108
3.786890 -0.295925 2.077599 130 126 115
3.500512 0.076165 2.135177 118 89 85
3.531833 -0.106372 2.131584 243 233 224
3.974841 0.859079 2.095109 4 0 0
4.253604 0.334452 2.030915 252 233 226
3.801748 0.228844 2.109823 255 239 226
4.203046 0.127381 2.029499 255 240 236
3.716705 -0.149466 2.096816 250 231 225
4.070310 0.313043 2.070358 255 249 253
4.343159 -0.358293 1.980677 240 231 222
3.590229 0.221281 2.125061 156 136 129
4.523572 0.185005 1.985866 255 253 244
4.260260 -0.067279 2.011189 255 242 233
3.751741 0.386138 2.113089 130 107 101
4.303247 -0.263241 1.989728 100 87 79
4.364798 0.205903 2.013212 236 225 221
4.371373 -0.114771 1.990670 255 245 238
4.362928 0.204202 2.013374 107 87 86
4.164087 -0.231826 2.025162 255 249 241
4.085691 0.425864 2.062938 254 240 237
4.175395 0.136450 2.035593 102 93 84
3.745047 0.932483 2.125258 226 236 238
3.515712 0.380454 2.141929 255 245 244
3.828042 -0.154346 2.080405 128 105 99
4.507967 0.082582 1.974463 255 248 236
4.292376 -0.265243 1.999679 75 70 66
3.704367 0.157953 2.119333 255 250 243
4.119821 0.094359 2.046995 114 91 85
4.068222 0.784124 2.073347 99 59 59
4.078396 -0.014429 2.052505 82 83 75
3.847548 -0.420777 2.067495 238 235 230
3.953090 0.595209 2.090704 98 68 66
3.934028 0.574239 2.089978 248 225 217
3.795224 0.230752 2.102463 255 242 235
4.625138 0.096401 1.963765 70 41 43
4.504473 0.677071 1.997335 97 71 70
3.697617 -0.248126 2.098700 138 118 109
3.931111 0.475455 2.088851 255 236 227
4.186370 0.020423 2.027133 143 118 111
4.154429 0.039589 2.030541 119 92 85
3.906482 0.708925 2.100416 255 238 232
4.083643 0.269631 2.059853 242 231 229
3.775152 0.259242 2.114947 239 215 211
4.014177 0.439181 2.073840 110 86 76
3.943169 0.492698 2.088361 242 225 218
4.126549 0.240792 2.052246 255 244 235
4.024127 0.348233 2.078141 151 114 105
4.011187 0.178941 2.065986 255 234 226
3.532815 -0.485795 2.095552 247 234 226
4.292376 -0.265243 1.999679 75 70 66
3.815266 0.309643 2.100523 123 100 94
3.334067 0.558269 2.168256 113 96 89
3.762769 -0.088621 2.088992 137 110 101
4.216110 0.581502 2.044098 249 236 230
4.405391 -0.398258 1.970128 183 161 148
3.503419 0.074240 2.136723 114 87 80
4.449742 0.736090 2.006430 255 239 233
3.787319 0.253360 2.111459 255 245 238
3.735581 0.614608 2.125588 236 236 228
4.233390 -0.065249 2.023160 255 244 237
3.873914 0.259079 2.092560 247 226 221
3.174112 0.138965 2.181935 119 92 97
3.923096 0.765866 2.096855 174 156 144
3.262511 0.731833 2.185250 250 233 226
4.123425 0.070706 2.046218 251 227 225
4.513939 -0.226339 1.962334 105 81 77
3.267791 0.410586 2.173067 253 236 228
3.784956 -0.136167 2.083697 255 250 244
4.194781 -0.410089 2.010881 60 57 50
4.633869 0.373847 1.969636 255 246 236
3.657826 0.261658 2.129613 152 132 125
4.025117 0.499377 2.073227 119 98 93
3.773089 0.306912 2.115473 153 129 119
3.781309 0.237923 2.113888 127 107 98
3.760597 0.919471 2.122517 255 245 233
4.323301 -0.165113 1.998691 147 120 113
3.830619 0.190895 2.106184 171 157 144
3.992815 0.068627 2.064356 255 244 239
4.479448 0.106464 1.977366 255 252 243
3.619562 -0.636242 2.071679 115 100 93
3.536049 0.070227 2.127536 118 95 87
4.403551 0.568079 2.008576 127 107 96
4.084011 0.818211 2.070903 255 251 239
4.417747 0.915675 2.021028 255 251 248
4.502805 0.091834 1.975051 110 99 95
4.317469 -0.315329 1.988289 130 107 101
3.980180 -0.205466 2.053417 255 249 239
3.420400 0.400217 2.153318 121 96 89
4.466786 -0.243246 1.971123 255 248 241
4.336404 -0.308514 1.990294 253 235 225
4.125582 0.436311 2.058767 139 120 114
4.177453 0.326275 2.046783 255 240 236
3.934028 0.574239 2.089978 248 225 217
3.847847 0.259895 2.102853 255 243 236
4.292060 0.153333 2.021597 255 237 236
4.321593 -0.068432 2.002422 255 252 249
4.310596 0.443945 2.025762 102 83 76
3.859361 -0.333364 2.068774 101 99 100
3.868958 0.860099 2.110223 251 243 232
4.520123 0.511259 1.995703 86 79 69
3.886606 0.406275 2.096856 255 251 242
3.092047 0.298954 2.190231 127 107 96
4.515808 0.189078 1.987251 244 239 233
4.634410 0.139411 1.971122 213 209 208
4.100626 -0.224233 2.031423 250 230 223
3.708328 -0.643530 2.059119 150 130 123
4.192497 0.841349 2.050441 154 149 145
4.309395 0.944220 2.049241 77 89 85
3.953853 0.340509 2.082299 255 238 233
4.515575 -0.421088 1.958176 246 242 239
4.085485 -0.347476 2.025986 153 134 127
3.411980 -0.322288 2.125643 148 133 126
3.755879 -0.131176 2.094975 157 140 133
4.034079 0.200681 2.063774 255 250 242
3.472560 -0.088007 2.131682 129 105 101
3.963479 0.305923 2.080780 115 90 85
4.166650 0.456756 2.055863 250 250 240
3.779816 0.064715 2.094948 255 246 238
4.342084 -0.148766 1.993320 128 99 95
4.228520 0.073212 2.022198 255 248 241
4.520970 0.477300 1.991467 129 114 117
3.968682 0.313103 2.082474 255 232 222
3.644466 0.308692 2.130536 116 102 91
4.288630 0.249519 2.024226 255 246 239
4.289876 0.149497 2.018950 255 249 247
3.189369 -0.314793 2.152745 124 95 91
3.778474 0.067290 2.102048 247 233 224
4.160028 -0.143307 2.026628 255 240 233
4.494646 0.238684 1.989250 131 129 132
3.743846 0.311295 2.108138 119 102 94
3.178699 0.297269 2.184098 239 217 219
4.173787 0.675872 2.057063 255 247 246
4.005739 0.554664 2.076626 114 89 82
3.740252 0.420910 2.120708 139 116 108
3.802685 0.067018 2.097056 146 133 127
4.157263 0.477918 2.053737 79 60 54
4.229188 -0.063435 2.023224 237 218 211
4.511527 -0.298574 1.963467 145 136 121
3.612609 0.803976 2.142772 255 249 241
3.265133 0.394223 2.169740 237 214 206
4.460770 0.504991 2.002673 101 77 73
4.444302 0.800071 2.015538 95 83 85
3.505311 0.604773 2.151338 244 230 221
4.047415 0.094164 2.055089 255 248 240
3.827363 0.235578 2.096472 134 115 108
4.233747 0.237052 2.024223 130 116 105
4.262155 0.633249 2.039486 255 251 245
4.602541 0.082068 1.964140 255 252 243
3.459376 0.423722 2.152258 241 222 216
3.751219 -0.575305 2.057824 255 245 235
4.100104 0.267182 2.053046 105 95 86
3.686671 0.860630 2.132367 254 235 229
3.740835 -0.562397 2.060565 71 62 67
3.333492 0.049933 2.158826 237 241 227
3.954110 0.763571 2.091391 255 237 224
4.128425 0.115774 2.040612 255 246 235
3.965413 0.879939 2.090866 104 79 74
3.122451 -0.350514 2.162960 246 216 208
4.599937 -0.068348 1.960552 255 244 238
4.295982 -0.441722 1.987309 81 77 74
3.569932 -0.166541 2.119951 136 115 110
4.254478 0.603085 2.040161 125 100 96
3.604822 -0.046133 2.122909 149 128 123
4.436887 -0.082087 1.978362 123 102 97
4.447576 -0.464512 1.962643 114 95 89
3.815388 0.270930 2.101922 130 105 98
4.683366 -0.219250 1.939449 138 120 116
3.610940 -0.310382 2.102871 255 243 235
4.511143 0.094197 1.976026 255 242 235
3.724739 0.363297 2.119853 255 248 242
3.696810 -0.242726 2.092191 157 130 121
3.681000 0.269348 2.120419 255 237 231
3.968905 0.313182 2.083325 255 232 222
3.744930 0.327172 2.118024 114 104 95
3.261431 0.580254 2.177603 124 109 106
3.961725 0.739897 2.090044 129 95 85
3.832231 -0.557282 2.046677 255 248 241
3.694699 0.465169 2.122970 116 89 82
3.351943 0.898102 2.175724 224 211 203
4.339686 -0.166922 2.001456 97 77 76
4.181892 -0.191686 2.025572 251 243 240
4.305056 -0.376511 1.988183 255 247 243
4.194304 -0.481046 1.994211 152 138 129
3.635338 -0.124169 2.108633 255 251 245
4.166650 0.456756 2.055863 250 250 240
4.026127 -0.002621 2.051173 127 106 101
3.514229 0.721745 2.149704 146 121 114
4.247664 0.913190 2.047321 105 86 82
4.069211 -0.244749 2.037358 250 240 231
3.912493 0.340414 2.088401 255 242 235
3.469016 0.600793 2.156227 255 242 234
3.774361 -0.162642 2.082233 255 249 240
4.014660 0.332896 2.076509 255 241 234
4.308036 0.788922 2.037953 89 74 77
3.842370 0.577143 2.103762 249 226 218
3.474784 0.095149 2.143655 116 88 84
3.747645 0.087660 2.107946 147 128 124
3.964819 0.227931 2.078507 255 239 233
4.484254 -0.249486 1.970758 158 133 128
3.262130 0.722762 2.180908 139 122 115
4.234577 -0.000867 2.020355 137 110 103
3.503514 0.428022 2.143415 124 94 84
3.415194 0.101446 2.146386 255 254 248
3.704060 -0.273426 2.094294 203 190 181
3.632560 0.685843 2.139997 126 122 119
3.719632 -0.312504 2.084008 241 227 218
3.631349 -0.306800 2.100951 135 118 110
3.805833 0.861514 2.115989 97 77 76
4.631824 0.174403 1.963692 119 100 94
3.991827 0.571240 2.081416 104 81 73
3.369295 0.144434 2.149495 255 246 239
3.472404 0.473206 2.146324 255 242 227
3.401213 -0.086029 2.134111 112 95 88
4.090144 0.483777 2.063563 254 234 227
4.558543 0.074114 1.970319 137 115 117
4.075417 -0.486667 2.013421 111 90 87
4.269799 0.918173 2.045449 141 133 130
4.202761 0.333339 2.043829 108 89 83
4.154609 0.039573 2.031039 122 95 88
3.334253 0.516930 2.167628 248 231 224
4.512125 0.317186 1.986067 109 82 71
4.247664 0.913190 2.047321 105 86 82
4.522100 -0.000548 1.979046 255 249 249
3.864284 0.268856 2.094689 230 211 204
3.505529 -0.307364 2.114680 255 233 225
