ply
            format ascii 1.0
            element vertex 77376
            property float x
            property float y
            property float z
            property uchar red
            property uchar green
            property uchar blue
            end_header
5.463311 -0.614168 1.743121 137 118 114
5.655294 -0.615175 1.705929 122 111 107
5.425504 -0.889017 1.745689 114 108 108
5.202694 -0.593212 1.794533 255 247 238
4.622488 0.462553 1.956885 113 111 112
5.567199 0.173529 1.749461 137 122 119
4.987412 0.723642 1.897357 255 253 249
4.740738 -0.295181 1.906586 226 220 220
5.386010 -0.987384 1.733752 255 247 240
5.412814 0.111271 1.785841 255 231 227
5.263918 -0.417473 1.791206 131 112 108
5.306219 0.736939 1.832822 255 241 238
5.637153 0.496907 1.753679 255 223 211
5.335812 -0.708825 1.762450 167 149 137
4.511391 -0.235165 1.944076 254 224 216
4.966507 0.006042 1.877893 255 248 241
5.245659 0.313140 1.829089 210 193 185
5.625855 0.814464 1.781105 135 141 137
4.767893 0.093086 1.917327 255 244 239
5.336708 0.263566 1.803429 255 249 243
4.516773 0.179630 1.959456 255 252 250
4.304007 -0.170739 1.980007 255 251 248
5.297161 0.647138 1.823334 181 177 174
4.735094 -0.099545 1.918062 145 124 119
4.896929 0.662540 1.908053 147 124 118
5.297898 0.626202 1.827037 255 243 242
4.970833 0.163162 1.885037 106 105 100
4.639824 -0.385248 1.919379 121 104 97
5.574151 0.729976 1.784080 101 105 104
5.639169 0.826099 1.775770 233 223 222
5.310501 -0.426911 1.781961 122 109 101
4.701717 -0.635309 1.877613 118 94 92
4.442089 -0.072184 1.960712 149 126 118
5.268542 -0.029780 1.814752 255 250 244
5.455546 0.219807 1.785749 254 237 227
4.605151 -0.246210 1.931251 140 119 116
4.601888 0.107404 1.945308 129 117 105
5.349969 -0.383754 1.776829 150 137 131
5.145111 0.304752 1.848145 255 248 241
4.605517 0.106313 1.946498 148 132 119
4.502746 -0.058492 1.949724 255 244 237
5.615947 0.720772 1.768098 251 227 227
4.949621 -0.531951 1.847454 142 123 119
5.460400 -0.368176 1.750820 136 116 107
4.525198 -0.126018 1.950956 69 47 49
5.179587 -0.855457 1.781510 118 99 95
5.415037 -0.604837 1.751208 255 245 244
4.425683 -0.086950 1.965061 255 245 244
4.226082 -0.212079 1.987229 255 240 230
4.422617 0.492543 1.981055 242 224 220
5.218751 -0.470084 1.793586 138 126 114
4.940319 -1.212655 1.806530 132 134 123
4.780903 0.269150 1.921004 255 218 206
4.532696 -0.601557 1.919173 159 159 147
5.256784 0.474203 1.826888 151 124 115
5.608232 0.809474 1.796993 98 88 79
5.164563 -0.153157 1.823519 135 116 110
5.015704 -0.818860 1.816020 225 216 207
4.605882 -0.080361 1.931669 124 97 88
4.500161 0.212448 1.964287 112 89 81
5.069891 -0.069352 1.849849 168 143 136
5.074627 -0.801970 1.806920 115 96 92
5.404581 -0.375257 1.766045 115 102 96
4.748877 -0.743973 1.866439 240 231 224
5.531275 0.214563 1.758564 123 103 94
5.280475 -0.745132 1.764877 255 247 237
5.321821 0.716325 1.830582 255 245 238
5.094397 0.516674 1.861980 255 248 242
5.139564 0.488094 1.854697 154 137 129
5.463975 -0.569844 1.745601 239 230 223
5.536927 -0.711589 1.730351 252 252 252
4.815045 0.281537 1.914570 255 250 244
4.723007 0.176824 1.925075 255 249 242
5.062840 0.515833 1.870205 255 246 241
4.859722 -0.831258 1.841945 255 241 229
5.515843 0.254104 1.774884 249 244 241
5.587131 -0.529599 1.726835 141 126 121
5.079100 -0.312105 1.837649 255 251 246
5.306279 -0.816617 1.763212 232 235 228
4.701035 -0.552861 1.892189 141 124 117
5.009355 -0.469980 1.843789 113 102 96
5.152647 -0.772656 1.790071 255 251 244
4.523836 0.800342 1.977767 110 109 105
5.085523 -0.816591 1.804549 252 251 246
5.512933 0.450931 1.777233 145 132 124
5.061347 -0.057076 1.855637 255 227 217
4.470953 0.102570 1.960730 149 135 124
5.307639 0.717399 1.830949 83 65 61
5.229658 -0.799283 1.777722 123 100 94
4.652247 0.196096 1.941057 255 240 232
5.625607 0.076517 1.744375 253 252 247
4.511281 0.101947 1.953441 147 134 128
5.662565 -0.118216 1.726957 152 132 125
4.970360 0.865339 1.894663 154 135 120
4.896190 0.663420 1.904151 252 233 227
5.147983 0.789418 1.862382 134 93 91
5.627218 -0.241801 1.728925 67 43 43
5.095418 0.518712 1.861201 141 121 114
4.302993 -0.468139 1.961296 127 104 98
4.872029 -1.116212 1.821663 255 251 245
5.556377 0.554006 1.771091 255 244 238
4.774533 -0.136031 1.909584 255 248 242
4.971954 0.504935 1.889922 255 245 236
4.774533 -0.136031 1.909584 255 248 242
5.420442 -1.024775 1.729292 105 86 80
5.223499 0.525218 1.835079 155 140 133
4.509758 -0.450075 1.931246 255 249 242
5.637129 0.685384 1.760754 84 68 71
4.860061 -0.497452 1.875155 79 71 68
4.639650 -0.997882 1.874457 255 253 255
5.016680 -0.470036 1.841437 129 108 103
4.975731 -0.639246 1.836184 154 146 144
5.469004 -0.538832 1.742296 255 250 242
5.614247 0.848077 1.787845 254 240 227
4.520638 -0.241236 1.944634 255 246 235
5.641224 -0.123681 1.728263 255 245 239
4.857626 0.485258 1.905883 148 115 108
5.460400 -0.368176 1.750820 136 116 107
4.516292 -0.108957 1.951130 163 153 144
4.740490 -0.532280 1.888125 142 124 120
5.528773 -0.487615 1.745588 185 171 171
5.379761 0.169777 1.793567 255 235 232
4.689501 0.517516 1.939773 156 133 127
4.978240 0.486347 1.886438 243 230 224
5.090377 -0.427945 1.829415 255 251 246
5.295180 0.749589 1.828123 160 119 113
5.661918 -0.118355 1.725939 152 132 125
4.623534 0.677984 1.950849 255 240 233
4.399805 -0.485021 1.943185 147 130 120
4.898143 0.300872 1.895494 117 90 83
5.275118 0.272316 1.818621 251 234 227
5.643013 -0.782083 1.707979 249 253 239
5.374455 0.096350 1.793601 234 205 199
5.463854 -0.520634 1.746936 255 245 235
5.470771 0.727444 1.802017 121 125 126
4.984427 -0.703787 1.829396 160 147 141
5.095237 0.516809 1.864348 255 248 242
5.412426 0.103171 1.785470 135 117 107
4.638841 0.730318 1.954087 255 237 230
5.344969 0.013239 1.790159 142 128 119
5.427645 -0.353791 1.760691 131 108 102
5.269540 -0.941122 1.755654 255 248 243
5.201008 -0.599049 1.796443 87 78 79
5.424866 -1.040551 1.725076 255 252 241
5.486894 0.841114 1.799388 118 89 83
5.069845 0.736297 1.872521 112 78 76
4.902324 -0.604391 1.855591 255 252 245
5.375199 0.578682 1.804461 111 101 92
5.552798 -0.840627 1.725079 142 107 103
5.597642 -0.875966 1.701717 255 249 245
5.475909 -0.372781 1.752230 251 228 220
5.335353 0.016193 1.796282 255 248 239
5.190224 -0.302548 1.818507 229 220 221
4.755965 -0.969874 1.857068 255 246 235
4.440169 -0.677284 1.926704 247 216 211
5.306979 -0.582744 1.771987 130 105 101
5.412699 0.179587 1.786167 124 109 106
5.394372 -0.025450 1.785728 250 233 226
5.057819 -0.397363 1.835940 255 234 226
4.622416 0.125761 1.944502 91 64 57
4.402610 0.077219 1.965426 187 149 138
5.658277 -0.631984 1.710507 250 245 242
5.377954 -0.385655 1.766473 142 124 120
5.610875 -0.526655 1.718642 113 99 90
5.537738 0.050683 1.753461 155 135 126
4.903909 -0.607017 1.850012 136 121 116
4.280287 0.216475 1.994866 136 123 115
5.584220 -0.625700 1.722800 130 119 117
5.467896 -0.037256 1.768167 255 249 244
4.541257 -0.909877 1.904035 245 246 241
4.869221 0.099744 1.903470 124 123 121
4.832338 0.301742 1.914238 255 237 228
5.062633 0.311567 1.866634 241 231 230
5.028730 -1.010579 1.800521 88 68 59
5.162302 0.006354 1.836272 141 113 109
4.410603 -0.838215 1.925610 252 239 230
5.172504 -0.616483 1.797053 144 125 121
4.502418 0.711182 1.977948 238 233 229
5.416289 0.179176 1.786654 144 127 120
4.960723 0.248829 1.883666 161 147 144
4.747392 0.639595 1.932264 255 250 243
4.523836 0.800342 1.977767 110 109 105
5.337066 0.964481 1.833686 172 174 171
4.983212 -0.702753 1.830513 255 249 243
5.522688 -0.485978 1.742750 222 219 214
4.917019 0.839462 1.904972 134 117 109
4.664397 0.895268 1.953157 106 101 95
5.366285 0.579770 1.805003 255 246 237
5.216161 -0.159139 1.820331 142 129 120
5.610875 -0.526655 1.718642 113 99 90
5.205987 -0.526492 1.795185 255 250 242
5.519632 -0.325930 1.745385 143 125 113
5.041086 -1.006361 1.799449 255 245 240
5.434474 -0.911431 1.733723 255 249 239
5.285158 0.765761 1.830618 119 85 73
5.080484 0.088937 1.858150 169 134 130
5.545340 -0.540682 1.731637 255 253 244
4.887319 -0.610967 1.854094 255 244 238
4.241494 -0.308159 1.979105 142 125 118
4.861500 -0.402099 1.878891 255 254 255
4.757660 -1.106138 1.846322 234 227 219
5.432847 0.106287 1.779287 242 217 213
5.528311 -0.206384 1.746722 129 114 111
4.675735 -0.184333 1.921228 255 253 244
4.827033 0.261549 1.910683 140 108 97
4.758210 0.670461 1.929265 255 230 225
5.045026 -0.420855 1.839068 250 223 214
5.578387 0.414160 1.759924 244 213 208
5.058127 -0.775400 1.809627 128 115 109
5.192309 -0.137683 1.826989 252 252 250
4.956224 -0.256393 1.864677 255 250 242
5.641430 -0.244222 1.728427 235 230 224
4.835736 0.282525 1.911039 140 106 96
4.608284 -0.446265 1.912131 126 108 104
4.777412 -0.152034 1.909448 138 110 107
4.714552 0.184064 1.929296 140 110 102
5.196463 0.252401 1.835003 110 95 88
5.638525 0.662242 1.759067 247 234 228
5.070294 0.786143 1.874590 255 242 234
5.529731 0.095703 1.754454 136 112 112
5.222746 -0.469429 1.795900 255 246 238
5.078329 -0.420309 1.833077 255 250 244
5.531191 -0.194632 1.749350 255 242 236
5.008802 -0.475189 1.841137 247 232 225
4.409881 -0.834967 1.923687 96 86 77
5.324331 -0.493151 1.777289 135 121 118
4.304861 -0.917458 1.940714 214 203 199
5.581873 -0.536403 1.723112 108 95 87
5.192401 -0.619585 1.798149 255 243 239
5.361949 0.276930 1.804194 122 101 98
4.588587 -0.917527 1.886629 255 249 240
5.044554 0.148615 1.860358 244 227 220
5.206995 -0.535214 1.794829 150 136 133
5.156757 0.357787 1.848792 143 125 115
4.660409 -0.565466 1.899250 148 131 121
5.006052 0.499310 1.883791 123 94 86
5.490599 -0.853870 1.730841 140 121 117
4.639597 -0.386153 1.915219 255 250 239
4.788277 0.116336 1.915084 115 101 98
5.100204 -0.697948 1.806061 139 119 110
4.625490 0.139797 1.945118 116 101 96
5.171682 -0.615378 1.797810 255 249 241
5.083293 -0.819992 1.800932 131 123 112
5.270917 0.583205 1.824113 255 233 229
4.627857 0.367332 1.945656 135 107 104
5.512764 0.697456 1.784418 138 119 115
4.982827 -0.905838 1.819223 255 238 227
4.639873 -0.989591 1.881580 196 188 185
4.941412 -0.907583 1.821911 245 231 220
5.130730 -0.635591 1.807359 160 132 121
5.191352 -0.414091 1.810000 186 176 174
5.073607 -0.799527 1.805823 249 231 227
5.080708 -0.442892 1.829087 255 248 238
5.614177 0.731834 1.781008 133 135 134
5.537776 -0.875913 1.717511 97 97 89
4.297763 -0.108859 1.991680 63 59 56
4.970360 0.865339 1.894663 154 135 120
5.018320 0.820848 1.884978 109 99 90
5.261747 -0.039470 1.815606 255 243 238
5.193324 0.515861 1.846499 247 223 211
5.181220 0.066023 1.833969 255 247 238
4.826961 0.833914 1.919727 239 210 204
5.308881 0.092265 1.811191 254 245 238
4.864671 -0.891763 1.844717 120 119 114
5.547312 -0.485946 1.733121 108 91 81
5.310625 0.261674 1.814919 255 245 236
4.748874 0.588740 1.929764 255 251 249
4.508724 -0.448225 1.932581 151 132 125
4.631505 0.109999 1.941977 103 85 81
5.501147 0.653977 1.786079 171 142 136
5.642246 0.695424 1.769016 122 102 103
4.990343 -0.802919 1.822704 255 251 242
5.107776 -0.068354 1.841479 129 106 98
5.083972 -0.680735 1.819762 125 121 120
4.714562 -1.086002 1.853247 130 126 123
4.857692 0.828210 1.915686 248 229 223
4.873970 -0.045776 1.890669 255 249 240
4.528935 -0.760826 1.915080 209 209 207
5.411005 0.491460 1.796298 138 117 116
5.303143 -0.390991 1.787095 255 253 250
4.890134 -1.096952 1.819325 139 126 117
4.508696 0.507880 1.967037 133 109 99
5.584164 0.751337 1.780073 89 63 64
5.036428 -0.620551 1.824692 255 239 230
4.597946 -0.634740 1.905089 160 145 138
5.125955 0.007809 1.841807 127 104 98
5.062283 0.016946 1.854412 154 139 134
4.984399 0.527286 1.891443 255 250 240
5.525319 0.737459 1.793253 246 255 255
5.311430 -0.070243 1.803358 124 103 100
5.076628 -0.422936 1.832794 255 248 242
5.072821 0.126131 1.853536 255 241 231
5.574809 0.730328 1.785125 101 105 104
5.291958 0.921058 1.841169 130 112 92
5.558431 -0.459778 1.731567 122 105 98
5.556953 -0.512599 1.734008 140 117 109
5.006052 0.499310 1.883791 123 94 86
5.287386 -0.737854 1.768157 99 82 74
5.641212 0.718527 1.765614 242 238 229
5.275481 -0.948086 1.759202 234 209 205
4.752124 0.053470 1.913263 255 255 242
5.306894 -0.829265 1.762562 250 231 217
5.303927 0.731398 1.839285 229 230 234
5.078940 -0.422311 1.833193 138 119 113
4.530082 0.122619 1.953760 145 121 111
5.303732 0.892580 1.839803 232 212 211
5.156375 0.359741 1.851235 255 247 240
5.204204 -0.470231 1.800163 255 252 243
5.197857 -0.640391 1.800693 252 252 242
5.433775 -1.029615 1.727228 152 135 128
5.207164 -0.820540 1.777382 255 252 244
5.640098 0.710733 1.768482 139 137 142
5.548081 -0.522891 1.731664 119 101 101
5.215766 0.719676 1.849147 252 252 252
4.806289 -0.152221 1.900002 177 152 148
5.313705 -0.021951 1.807008 252 240 228
5.525528 0.255309 1.769732 255 243 231
4.729459 0.174997 1.927724 255 222 213
5.641584 0.716235 1.770418 110 106 107
5.637413 0.819673 1.776718 97 93 94
4.690424 0.205075 1.938528 249 229 222
4.463193 0.108153 1.966485 255 243 235
4.737916 -0.072268 1.917524 255 250 253
4.865047 -0.894082 1.845510 109 110 102
4.673621 0.622789 1.944503 255 246 236
5.115631 0.257567 1.851075 255 251 244
5.084649 -0.374052 1.835434 209 211 210
5.891179 0.165801 1.692512 92 89 84
5.880976 0.165539 1.696021 80 71 72
5.730260 0.083153 1.724747 90 83 75
5.795917 0.323977 1.713409 102 93 84
5.225745 -0.495370 1.804426 224 201 193
5.891179 0.165801 1.692512 92 89 84
5.912547 0.004387 1.681040 70 66 65
5.880976 0.165539 1.696021 80 71 72
5.367432 -0.164703 1.795595 47 37 35
5.251729 -0.331803 1.802088 248 231 211
5.902528 -0.396233 1.672280 88 79 74
5.706994 0.244010 1.731749 93 82 78
4.597322 -0.575424 1.903430 79 69 67
5.912547 0.004387 1.681040 70 66 65
5.745509 0.082917 1.720747 95 91 82
5.130876 -0.729947 1.798123 89 80 73
5.681048 0.484493 1.738353 89 78 72
5.682033 0.646821 1.752987 102 94 91
5.572248 -0.712724 1.713087 234 224 215
5.466978 -0.163814 1.779408 108 100 89
5.702458 0.807623 1.753766 92 82 83
5.700135 0.574372 1.741901 237 227 218
5.910535 -0.323833 1.663224 240 216 206
5.438969 0.247374 1.797384 255 253 244
5.672223 -0.318045 1.718251 75 70 64
5.815781 0.324346 1.712069 99 94 90
5.745509 0.082917 1.720747 95 91 82
5.809373 0.082938 1.707839 94 85 76
4.807867 0.712148 1.922989 91 80 74
5.583333 0.328640 1.763858 255 251 245
5.680117 -0.548777 1.699580 255 255 244
5.337346 0.562378 1.825346 95 82 76
5.761800 -0.548063 1.687500 251 244 228
4.807867 0.712148 1.922989 91 80 74
5.465679 0.564352 1.804754 76 69 61
5.926662 0.165754 1.685208 102 97 93
5.761642 0.082890 1.713999 96 92 83
5.484542 -0.973420 1.707486 248 229 215
5.353437 -0.553727 1.771000 244 231 225
4.940773 -0.325463 1.867163 255 254 248
4.665458 -0.490768 1.887327 87 78 73
5.030029 0.394877 1.884248 102 92 83
5.700671 0.329863 1.738409 255 255 244
5.483145 0.574838 1.807086 243 244 236
5.935717 0.165729 1.683737 90 82 79
5.698161 0.813877 1.753594 255 255 251
5.767237 0.494130 1.730271 244 242 230
5.469353 -1.033479 1.710479 244 231 222
5.670774 -0.550011 1.703079 255 255 243
5.691734 -0.548840 1.699509 255 255 244
5.704465 0.809211 1.757690 92 82 83
5.157834 -0.327978 1.826337 93 83 74
5.890170 0.004229 1.687091 94 82 82
4.786060 -0.252575 1.893900 67 57 55
5.687476 0.654439 1.751681 231 221 211
5.839989 -0.477825 1.681699 70 65 61
5.416759 0.359488 1.802315 239 224 217
4.909762 0.713856 1.902734 98 85 79
5.839989 -0.477825 1.681699 70 65 61
5.138754 0.398118 1.861847 81 70 64
4.568956 -0.167668 1.917759 255 254 245
5.680702 -0.629732 1.698515 240 227 219
5.704638 0.250308 1.737660 255 247 241
5.908135 0.737371 1.702642 235 219 206
5.719874 0.806896 1.751149 71 53 51
5.645210 1.014785 1.753455 206 195 191
4.959336 -0.325891 1.865883 255 255 246
5.925540 0.236350 1.680637 234 220 217
4.902856 0.237429 1.897970 255 255 244
5.815115 0.486797 1.713932 90 89 85
5.029085 0.394252 1.877624 102 92 83
4.786060 -0.252575 1.893900 67 57 55
5.478750 0.246972 1.780417 255 243 233
5.814648 -0.386454 1.681119 249 232 225
5.135036 0.798763 1.871503 88 70 70
4.936050 -0.901568 1.830685 94 87 69
5.458026 0.557295 1.798687 255 251 234
5.773249 0.332696 1.718463 253 246 240
5.673919 0.572877 1.749390 242 238 227
5.662091 -0.070276 1.724903 255 250 248
5.541890 -0.241081 1.753920 96 87 82
4.587391 -0.644067 1.897646 175 161 158
5.823900 -0.562541 1.684957 68 65 58
4.777305 0.384855 1.914980 228 201 194
5.823900 -0.562541 1.684957 68 65 58
5.271613 -0.167983 1.814800 79 71 68
4.342747 -0.102327 1.966069 93 85 82
5.153711 0.231345 1.851880 211 191 182
5.151004 -0.254411 1.832290 255 246 232
5.870059 0.488159 1.702316 102 92 91
5.785772 0.404815 1.725864 99 96 91
5.837281 0.003981 1.700633 64 54 53
5.661091 0.076010 1.730009 239 219 210
5.837281 0.003981 1.700633 64 54 53
5.271613 -0.167983 1.814800 79 71 68
5.178074 -0.812293 1.781442 103 90 81
5.914736 0.009979 1.680536 255 249 243
5.699991 0.403479 1.745443 97 87 78
5.552365 0.564397 1.777950 96 93 84
5.719874 0.806896 1.751149 71 53 51
5.658611 0.492050 1.750189 250 240 230
5.699991 0.403479 1.745443 97 87 78
5.309741 -1.007356 1.743808 54 49 53
5.675459 0.319101 1.738362 235 224 222
5.883603 0.645553 1.715445 255 252 233
5.783884 -0.388814 1.687065 255 240 233
5.692418 0.412285 1.744784 233 234 228
5.708973 0.814214 1.754062 254 255 250
5.244658 0.880996 1.853261 51 35 35
5.692168 0.329967 1.739888 255 252 242
5.804271 0.004287 1.698456 80 74 74
5.240882 -0.492405 1.797078 231 206 199
5.492595 -0.553224 1.743136 229 219 210
5.480119 0.718871 1.793684 123 109 109
4.807375 0.793572 1.925212 91 81 79
5.905558 0.810578 1.711423 115 104 102
5.803037 0.495187 1.718908 253 246 238
5.215168 -0.399438 1.810337 242 227 224
5.105729 0.558055 1.870663 105 94 92
5.360967 0.150161 1.810629 236 208 204
5.946993 0.246297 1.683284 103 98 95
5.579947 0.248032 1.765346 251 234 227
5.932988 0.333504 1.687676 254 249 243
5.352664 -0.156040 1.793355 245 225 216
4.840585 0.156026 1.912246 252 238 237
5.798940 -0.641476 1.682400 42 42 32
4.580333 0.470917 1.957706 65 59 59
4.482904 -0.099472 1.953973 88 77 81
5.044593 -0.491085 1.835877 70 65 62
5.656885 0.082973 1.738715 96 83 77
5.420617 0.482397 1.805893 84 73 69
5.044593 -0.491085 1.835877 70 65 62
5.570413 0.483307 1.768852 97 87 78
5.657194 0.082773 1.739403 96 83 77
4.829919 -0.812573 1.841196 96 88 77
5.002139 -0.497945 1.841710 227 211 198
5.420390 0.482282 1.805138 84 73 69
5.593403 0.248295 1.759328 255 248 237
5.039236 0.320711 1.877563 255 254 251
5.751008 0.076775 1.710762 254 236 216
5.796249 0.082859 1.712394 106 99 91
4.700247 0.384197 1.931558 212 195 187
5.889463 0.650828 1.715472 81 70 74
5.033586 -0.564373 1.830342 255 240 233
5.610744 0.248410 1.757529 254 241 235
5.161335 -0.649075 1.805474 82 78 69
4.829919 -0.812573 1.841196 96 88 77
5.586565 0.565375 1.771816 102 94 83
5.555134 -0.644310 1.726930 78 65 57
5.712626 0.807863 1.753362 91 80 78
5.217619 -0.882370 1.768044 254 255 243
5.757508 0.092027 1.714459 255 254 245
5.474624 0.644636 1.798895 70 52 52
5.348289 -0.477188 1.780630 255 249 240
5.936670 0.172226 1.685838 255 248 238
5.267833 0.323438 1.830797 255 244 238
5.687062 0.491610 1.747526 240 236 225
5.312094 -0.556207 1.784999 243 235 233
4.321978 0.391404 1.985403 239 239 227
5.377294 0.006624 1.796319 255 254 248
5.704903 0.492609 1.737876 253 250 243
5.574872 0.572305 1.774009 236 234 221
5.648488 0.893607 1.767164 218 213 209
5.252996 0.480615 1.839089 71 62 55
5.712626 0.807863 1.753362 91 80 78
4.761957 -0.018768 1.906252 212 184 173
5.782050 -0.722598 1.675050 105 98 90
5.636572 -0.115223 1.739364 57 48 53
5.031890 0.722719 1.883619 249 240 231
5.658748 -0.242694 1.723504 255 253 237
5.240870 -0.492423 1.797181 231 206 199
5.816110 -0.722309 1.672482 85 81 72
4.551945 0.790206 1.969686 69 57 59
5.701676 -0.150744 1.717196 244 231 223
5.681657 0.002497 1.731305 95 85 75
5.246549 -0.558533 1.792657 235 228 222
5.487647 0.572219 1.793470 227 227 219
5.391149 0.320173 1.812909 81 72 63
5.030695 -0.093367 1.861577 219 195 183
5.018790 0.401224 1.888965 252 251 246
5.260977 -0.090987 1.812608 255 231 224
5.428296 0.479477 1.799228 55 40 37
5.272135 0.407434 1.832561 183 165 165
5.912839 0.655183 1.705406 232 231 227
5.235295 -0.637476 1.783691 224 211 203
5.701994 -0.397740 1.708810 83 73 64
4.765046 0.146858 1.916254 103 94 87
5.039354 0.160865 1.869271 255 255 243
5.134951 -0.811101 1.786983 95 92 85
5.320982 0.084823 1.813372 231 236 232
5.107595 0.719929 1.877065 80 69 67
5.869120 -0.315448 1.674394 80 73 65
4.454890 0.714355 1.980987 218 214 202
5.248662 -0.735371 1.768313 219 201 191
4.592876 0.314930 1.949651 255 255 250
5.816110 -0.722309 1.672482 85 81 72
5.472693 -0.075163 1.778981 255 253 247
5.907306 -0.236174 1.675094 95 91 90
4.953663 -0.890377 1.810257 106 94 82
5.368605 0.883800 1.826433 60 45 42
5.187325 -0.159735 1.831004 250 249 247
5.655329 0.323702 1.750371 89 80 75
5.716130 0.647323 1.746280 88 77 75
5.772271 -0.561292 1.688298 74 66 64
5.691670 -0.164635 1.717753 205 187 177
4.900342 0.715574 1.911472 97 86 80
5.669200 0.491390 1.748441 254 249 243
5.753669 0.124375 1.715604 255 254 235
5.017243 -0.484448 1.840581 242 231 225
5.206705 0.151011 1.842994 236 214 203
4.822909 0.795361 1.928434 86 75 73
4.593601 0.877229 1.965940 214 216 213
5.251638 0.323755 1.832687 255 244 237
5.537178 0.553724 1.774781 227 219 200
5.653465 -0.471637 1.719558 234 219 212
5.958836 -0.316582 1.667444 81 72 67
5.662911 -0.631038 1.699130 254 251 244
5.880338 0.650319 1.715926 95 84 88
4.458794 0.152371 1.955107 236 235 230
4.730635 -0.256134 1.913636 83 68 63
4.759186 0.717942 1.930621 227 220 212
5.570719 0.248206 1.768459 255 248 241
4.894871 0.237036 1.896232 255 255 244
5.718433 -0.723814 1.694813 94 90 79
5.652536 1.035948 1.753627 52 52 54
4.586648 -0.487321 1.907006 255 244 237
5.900216 0.731370 1.714226 89 71 69
4.897140 -0.882429 1.824519 234 225 220
5.439737 -0.317385 1.769485 255 254 248
5.883411 0.010008 1.692686 239 236 229
4.775685 -0.165604 1.898948 255 249 240
5.726694 0.890022 1.752379 48 33 36
5.636572 -0.115223 1.739364 57 48 53
4.941808 0.563209 1.909919 250 250 242
5.694312 -0.480420 1.704706 95 86 77
5.426116 0.488063 1.801641 255 254 246
5.951066 -0.397047 1.665203 87 77 68
5.125622 -0.173787 1.837124 255 251 243
5.143213 0.800035 1.870981 91 81 80
5.247403 0.243305 1.830536 255 251 242
4.837612 -0.481529 1.862364 227 208 201
5.000481 -0.486625 1.852459 255 254 246
4.807359 0.798623 1.921170 229 225 214
5.880338 0.650319 1.715926 95 84 88
5.429491 -0.166031 1.781805 49 39 30
5.220822 0.566507 1.851479 219 222 215
5.680228 0.074412 1.725098 234 216 204
5.161335 -0.649075 1.805474 82 78 69
5.582137 -0.481487 1.732221 73 66 58
5.477896 -0.471687 1.749775 255 255 248
5.933781 -0.394976 1.661067 83 76 68
4.708559 0.477661 1.932701 255 251 239
5.382391 -0.234215 1.788260 235 220 217
5.743776 0.812918 1.739718 255 255 253
4.823799 -0.012208 1.900284 67 56 54
5.285851 -0.556170 1.784265 239 226 218
5.599516 0.573189 1.769582 255 255 248
5.340934 -0.647245 1.772391 88 80 77
5.582137 -0.481487 1.732221 73 66 58
4.941194 0.072105 1.888174 87 77 68
5.411889 0.204832 1.801508 94 84 85
5.369815 0.237362 1.803329 85 78 68
4.823799 -0.012208 1.900284 67 56 54
5.446268 -0.636236 1.745613 255 252 246
5.829592 -0.229365 1.689371 249 239 230
5.718668 0.813955 1.751316 247 247 239
5.713015 0.414033 1.738938 246 242 233
4.724053 -0.415641 1.894951 64 54 52
4.873450 -0.165039 1.885755 251 241 239
5.747131 0.976808 1.738142 247 255 251
5.881062 -0.396137 1.674819 83 73 63
5.780940 -0.721535 1.672933 105 98 90
5.213140 0.877773 1.852978 65 46 50
4.861608 0.319388 1.904519 254 237 227
5.411921 -0.635309 1.752035 255 251 240
4.314284 0.299758 1.975624 99 96 87
5.590854 0.090372 1.749255 255 251 244
4.461881 -0.092987 1.945818 255 255 247
4.880477 -0.165071 1.882988 255 243 242
4.744801 -0.335594 1.903139 76 66 57
5.128493 -0.802833 1.789846 245 241 238
5.271009 -0.325069 1.801545 102 93 84
5.687109 0.966642 1.764505 70 48 51
5.236306 -0.567822 1.796421 58 48 47
5.707315 0.806783 1.752661 74 63 61
4.764157 0.229464 1.920241 84 75 68
4.895908 0.230300 1.900845 95 84 80
4.925793 -0.643609 1.841744 255 255 243
5.716819 -0.235059 1.716511 81 78 73
4.865956 -0.519719 1.859359 250 227 221
5.801998 0.091609 1.708262 245 242 235
5.350472 0.487008 1.821883 241 246 239
5.678470 0.170882 1.730721 255 253 245
5.866709 0.004507 1.693467 86 76 75
5.085090 -0.885211 1.800709 236 235 230
5.316261 0.398067 1.822424 94 84 74
5.681210 -0.484548 1.722119 97 87 78
4.877975 -0.724572 1.842155 255 253 244
4.942173 -0.725850 1.833395 251 247 238
5.449818 -0.235585 1.771273 255 246 240
4.675895 -0.485118 1.890028 252 243 234
5.175666 0.967680 1.849265 249 251 250
5.651579 0.250175 1.742026 255 252 243
4.987935 0.800817 1.891043 235 231 222
5.718687 -0.398826 1.710460 62 54 52
5.189157 -0.441725 1.811114 67 65 68
4.987519 -0.163056 1.865241 255 247 242
5.368958 -0.396227 1.780754 254 241 233
5.671341 0.240230 1.741195 255 243 235
5.271942 0.487148 1.839199 252 255 248
5.831291 0.091481 1.706536 253 252 247
5.423801 0.315187 1.791041 239 224 217
5.494817 0.481360 1.790209 83 79 68
5.494817 0.481360 1.790209 83 79 68
5.966859 -0.507362 1.649715 238 236 223
5.585403 -0.630768 1.716565 247 239 236
5.571332 -0.789204 1.706410 232 224 213
5.574769 0.478441 1.765216 220 191 185
5.889252 0.490558 1.707080 94 85 86
5.712326 -0.953284 1.669057 229 223 209
5.087119 -0.571754 1.822267 82 72 70
5.860745 -0.641348 1.672804 82 75 67
5.423690 0.233438 1.799374 230 223 205
5.748778 0.251317 1.724787 250 231 225
4.897131 -0.164214 1.882280 254 241 235
5.526666 -0.000610 1.768155 238 240 237
5.812846 -0.162611 1.691551 240 231 216
5.794339 -0.963747 1.657643 69 61 48
5.912855 -0.226810 1.669892 249 245 242
4.463836 0.635207 1.978893 236 221 214
5.923188 0.083002 1.693985 60 50 51
5.275407 0.152452 1.832618 207 184 176
5.665389 0.249658 1.743620 255 246 237
5.176888 -0.322182 1.825711 255 251 244
5.881672 0.092938 1.692629 247 236 230
5.714780 0.727767 1.748704 148 143 139
5.678034 -0.713833 1.696067 255 246 237
5.922995 -0.550478 1.659475 218 197 192
5.862018 -0.483384 1.670197 243 235 216
5.763358 0.009656 1.707233 246 239 231
5.794339 -0.963747 1.657643 69 61 48
4.479851 0.386214 1.964505 105 98 92
4.686781 -0.483123 1.886541 255 251 237
5.964218 0.166606 1.682419 102 97 94
5.943732 0.491464 1.691433 71 67 66
5.909559 0.497038 1.702673 255 255 247
5.867514 0.004330 1.694750 86 76 75
5.893077 -0.228446 1.678775 250 242 240
4.835538 -0.163796 1.885545 243 232 226
5.887936 -0.307706 1.670676 255 246 241
5.647974 -0.247963 1.726164 238 224 215
5.214952 0.807177 1.859131 240 223 213
4.365587 -0.339790 1.954227 92 87 84
5.486907 -0.952974 1.706235 255 244 230
5.620998 0.001081 1.749352 89 82 74
5.847797 -0.633077 1.675816 211 192 185
5.284284 -0.319495 1.801433 255 244 238
5.870520 0.569140 1.712558 109 105 102
5.883997 0.407718 1.700727 86 80 80
4.436983 0.230778 1.953279 255 252 236
5.782058 -0.001198 1.706923 231 207 195
5.964273 0.617826 1.690084 98 90 87
5.656051 -0.230001 1.723096 254 233 228
5.137737 0.955966 1.868831 63 57 61
5.566222 0.248076 1.770435 255 250 242
5.864158 -0.070911 1.690910 249 245 242
5.147033 0.323538 1.862902 255 255 250
5.040815 -0.402663 1.842751 226 211 204
5.911728 0.094049 1.678911 223 213 204
4.945334 -0.175643 1.874961 251 237 228
5.199789 -0.800265 1.777669 238 244 234
5.747603 -0.642085 1.692975 84 75 68
5.887865 -0.469983 1.668606 228 218 206
5.974791 -0.397272 1.658729 97 86 82
4.814879 -0.257131 1.885427 203 173 163
5.944435 -0.227237 1.662259 255 254 250
5.686437 -0.721299 1.694308 99 93 81
4.767543 0.633292 1.934495 71 61 59
5.875387 0.651623 1.723047 96 87 88
5.012147 0.309811 1.886171 255 251 243
4.800816 -0.084893 1.889606 255 254 243
5.763938 -0.813969 1.673587 230 206 194
5.760725 -0.389103 1.697560 227 208 201
4.658284 0.870888 1.952910 79 71 69
5.350234 0.809517 1.831782 254 255 250
4.616438 0.870819 1.977106 234 225 220
5.965559 -0.223983 1.658581 231 204 197
5.569826 -0.085385 1.749766 242 218 208
5.945965 -0.304787 1.657093 243 228 225
5.677696 -0.151677 1.727974 255 251 248
5.164081 0.068836 1.839797 230 200 189
4.429453 0.707290 1.984361 87 77 75
5.947909 0.649803 1.706802 255 253 240
4.796612 0.153968 1.913908 226 225 220
5.585335 0.892804 1.778204 229 231 217
5.427018 0.480570 1.805460 68 53 50
5.375852 0.882848 1.821546 72 57 54
5.723398 0.798686 1.750209 255 254 255
5.593228 0.009270 1.755358 241 224 217
4.463059 0.616990 1.964947 224 206 192
5.280563 0.243260 1.824196 249 242 234
4.501083 -0.091639 1.940502 255 255 248
5.366060 0.569212 1.815001 246 237 222
5.730336 0.568404 1.739477 109 104 100
5.860745 -0.641348 1.672804 82 75 67
5.593143 0.397480 1.761502 238 215 207
4.787666 -0.007267 1.910693 255 247 241
5.021316 0.239999 1.882846 255 255 246
4.683633 -0.426365 1.906143 221 204 194
5.935717 0.165729 1.683737 90 82 79
5.489214 0.652631 1.803339 241 227 216
5.876951 0.252549 1.695913 253 249 240
4.987894 -0.484728 1.848408 238 225 217
5.115000 0.482955 1.864824 253 255 252
5.771912 0.734090 1.728026 255 248 239
5.661595 0.249996 1.744653 252 242 233
5.652569 0.805835 1.767558 82 74 71
4.767543 0.633292 1.934495 71 61 59
4.479229 0.305634 1.964767 76 68 66
5.776562 -0.550789 1.682483 245 231 220
4.950947 -0.500801 1.852300 201 184 168
5.636504 -0.147658 1.739302 80 69 73
5.303771 -0.525661 1.782679 105 101 102
5.459602 0.969337 1.786177 245 255 255
5.438643 -0.879439 1.728397 227 209 199
5.046033 -0.722423 1.810200 255 253 245
5.684525 -0.151945 1.723416 255 253 241
4.746796 0.147796 1.926966 99 92 86
5.644310 -0.631622 1.707397 223 225 222
5.457087 -0.646469 1.750605 111 102 93
5.866712 0.649376 1.716858 92 82 83
5.578279 0.403162 1.776372 95 86 77
5.254410 0.475050 1.832872 249 227 214
5.741694 0.094647 1.718463 255 255 248
5.713125 0.080686 1.721169 58 49 42
5.003046 0.400050 1.883745 237 238 232
5.679476 -0.638963 1.704123 56 41 34
5.650156 0.486199 1.758012 85 75 66
5.541577 -0.554220 1.737050 255 249 243
4.744540 -0.336869 1.907981 76 66 57
5.739788 -0.064636 1.718366 255 255 244
4.906525 0.312451 1.904712 89 81 78
5.546928 0.645861 1.780336 81 71 62
4.774918 -0.099343 1.901318 255 250 231
5.095417 -0.251172 1.849177 95 81 72
5.764514 0.003350 1.712125 72 58 55
4.749104 -0.595187 1.875130 74 68 70
5.578279 0.403162 1.776372 95 86 77
4.994102 -0.501369 1.846583 212 195 185
4.543155 0.152297 1.936698 254 248 234
5.814717 -0.646106 1.671036 248 233 230
5.056684 0.724680 1.889586 255 253 248
5.910604 -0.481278 1.676369 85 82 75
4.886220 0.721043 1.911442 252 242 232
5.452322 -0.954061 1.713863 227 205 194
5.752156 0.245314 1.724708 91 80 76
4.770588 0.482368 1.939702 253 254 236
5.520932 -0.646354 1.738765 102 89 81
4.901949 0.560982 1.905746 255 254 248
5.365532 -0.640079 1.766537 243 232 226
5.327673 -0.410804 1.785018 254 237 227
5.823313 0.729757 1.725098 104 93 87
5.855049 -0.095228 1.687832 67 54 61
5.885845 -0.477650 1.669459 78 74 71
5.758770 -0.970590 1.660095 226 219 193
5.723750 0.485890 1.738340 97 89 86
4.708830 0.786826 1.936975 222 203 197
5.715752 0.403485 1.736976 108 105 98
4.817883 -0.408702 1.882632 255 250 242
4.700311 0.384765 1.934538 221 207 198
4.831104 -0.173083 1.898671 71 53 49
5.383632 0.726788 1.812947 250 240 239
5.893824 0.240159 1.688153 255 239 223
5.922268 0.491052 1.695710 98 90 88
5.041355 -0.160498 1.853161 232 213 206
5.801359 0.971335 1.742183 81 71 70
5.906258 -0.241160 1.663707 239 221 211
5.302713 -0.397240 1.794616 255 250 240
5.830998 0.981492 1.730381 228 239 235
4.930959 0.480421 1.899384 255 255 244
4.749104 -0.595187 1.875130 74 68 70
5.011303 0.642769 1.893175 238 240 229
5.365474 0.557848 1.816657 237 208 200
5.919880 0.172830 1.679141 255 241 232
5.057236 -0.240716 1.846389 255 252 240
5.848687 0.092833 1.700892 252 252 242
5.115268 0.724196 1.870900 255 250 240
4.893323 0.960501 1.895199 244 245 239
5.557937 0.729101 1.775405 250 254 253
5.493814 0.154274 1.776648 200 175 170
5.903502 -0.160859 1.676548 240 224 211
5.577320 -0.393912 1.736636 255 245 239
5.540308 -0.080394 1.765993 102 88 79
4.811038 -0.808020 1.849417 251 238 229
5.515438 0.974867 1.785870 247 255 253
5.919344 0.083530 1.672561 55 43 45
5.110879 0.997817 1.851641 55 56 60
5.677649 0.895188 1.762102 223 216 206
4.804344 0.144134 1.906254 255 251 243
5.329524 0.716046 1.825639 125 103 90
5.904975 -0.561298 1.668036 81 77 68
5.846169 0.178519 1.697184 224 205 198
4.830580 -0.325885 1.882160 255 253 239
5.544183 -0.169447 1.761016 245 218 209
4.439100 0.707682 1.983834 100 86 85
5.345362 -0.396802 1.783244 255 252 246
5.730254 0.251159 1.730089 241 234 224
5.706178 0.803880 1.754594 255 254 238
5.734770 0.576029 1.736473 244 235 228
5.183973 0.562550 1.862185 243 242 238
5.052745 0.966924 1.869939 248 253 249
4.336944 -0.172093 1.959794 246 236 227
5.870070 0.011243 1.690092 252 248 239
5.932596 0.649399 1.694454 64 47 53
5.782806 -0.466484 1.684137 240 233 225
4.965556 0.384944 1.899114 76 67 70
5.666443 -0.085508 1.726663 231 213 199
5.901419 -0.074632 1.683257 94 90 91
5.288020 0.002538 1.823247 255 253 247
5.600415 0.565183 1.768142 106 96 86
5.372395 -1.054273 1.722736 255 251 249
5.777605 0.245677 1.727740 89 82 76
5.720136 -0.634123 1.691144 255 242 233
5.575196 0.478610 1.766083 211 184 177
5.819338 -0.467547 1.678580 255 250 241
5.806704 -0.308034 1.683171 255 252 243
5.811138 0.895441 1.746496 72 66 66
5.309449 -0.996534 1.744302 49 51 50
5.368247 0.722329 1.819353 77 67 68
5.095066 0.637080 1.874958 106 95 93
5.652967 0.566351 1.756071 104 95 88
5.142279 0.884164 1.872681 209 206 199
5.227033 0.890541 1.867917 237 230 222
5.162627 -0.171689 1.833853 245 236 227
5.076334 -0.410055 1.833002 86 75 69
5.740912 -0.313827 1.709031 245 246 238
5.267443 0.880141 1.849486 30 5 1
4.875211 -0.817291 1.838780 121 107 98
5.665730 0.330254 1.752199 255 255 246
5.750856 0.134312 1.720132 56 52 53
5.350261 -0.711137 1.746353 255 255 244
5.621009 0.960948 1.763702 89 89 89
5.765011 0.003013 1.713154 72 58 55
4.696994 0.875934 1.945929 215 215 213
5.654060 0.724614 1.760597 111 97 97
5.871655 -0.477057 1.670810 55 54 50
5.932596 0.649399 1.694454 64 47 53
5.102856 0.789667 1.869686 203 169 160
5.233516 -0.477934 1.797395 253 239 228
5.854859 0.160137 1.696099 243 217 204
5.112599 0.402654 1.866874 255 254 245
4.787561 0.550841 1.921928 90 85 79
5.661675 0.647599 1.758152 129 126 117
5.801359 0.971335 1.742183 81 71 70
4.862394 -0.172926 1.893042 88 77 73
5.721323 -0.163538 1.709852 199 182 174
5.500198 -0.248498 1.756214 221 208 200
4.726109 0.228429 1.938334 102 91 85
4.558473 -0.245671 1.930595 210 200 198
5.827538 0.575000 1.715532 254 251 242
4.966611 -0.161608 1.871647 241 242 237
4.843751 -0.175756 1.899104 96 81 76
5.850634 -0.104599 1.687611 247 233 222
5.739164 -0.481734 1.703719 89 80 73
5.259882 0.323616 1.834538 251 240 234
5.049269 -0.326343 1.848602 255 251 248
5.752728 -0.507015 1.692890 92 85 103
5.298202 0.475317 1.835862 222 230 232
5.300679 -0.165070 1.809756 242 238 237
5.675790 -0.632959 1.698770 252 239 231
5.842643 0.496598 1.711882 232 221 215
5.855239 -0.127613 1.686624 91 74 80
4.720102 -0.493852 1.888824 76 65 61
5.858884 -0.552486 1.672218 255 243 239
4.878011 -0.011527 1.893334 75 66 61
4.810948 -0.084564 1.893844 250 231 225
5.890210 0.817858 1.715900 230 219 215
5.837387 0.011308 1.696600 228 229 224
5.740257 -0.042437 1.716673 255 255 236
5.128860 0.309540 1.854371 204 187 180
5.728674 -0.068769 1.719493 255 251 247
4.981699 -0.325154 1.858816 255 253 247
4.921875 -0.407673 1.872362 254 244 235
5.917908 0.647753 1.707376 255 244 230
5.208819 0.404463 1.843749 244 243 239
5.739789 -0.030982 1.716354 255 254 240
5.867959 -0.462357 1.677019 95 93 94
5.415418 0.513443 1.804152 245 235 223
4.841989 -0.334118 1.886224 95 86 77
4.827175 -0.016691 1.896404 207 187 178
5.962332 0.166585 1.679458 102 97 94
5.769484 0.728718 1.735971 109 94 87
5.415988 0.208676 1.797903 230 226 217
5.606690 0.089923 1.750548 255 254 246
5.661283 -0.237315 1.728226 81 72 65
5.750493 0.134504 1.719485 56 52 53
5.636454 0.653112 1.765099 228 230 225
5.605012 -0.709108 1.697750 226 216 206
5.738312 -0.481132 1.701985 89 80 73
5.880198 -0.156446 1.682876 68 67 63
5.637570 0.348249 1.755018 107 103 104
5.935718 0.003513 1.678888 59 48 52
5.070237 -0.803235 1.800999 245 235 226
5.544291 0.890552 1.778044 231 227 216
5.357609 0.243664 1.813689 255 247 236
4.785602 -0.413496 1.885079 88 78 76
4.553730 0.792731 1.960895 252 245 235
5.852246 0.014263 1.692885 246 245 241
5.392344 -0.512917 1.763703 255 254 248
5.695044 -0.311227 1.712844 255 255 244
5.642055 0.402407 1.756531 103 94 85
5.453358 0.327765 1.793608 234 221 213
5.626523 -0.714939 1.704346 255 254 248
5.783516 0.897406 1.740761 211 200 194
5.030943 0.796988 1.888077 88 74 73
5.773343 0.164064 1.717222 99 95 84
5.414523 -0.110084 1.787763 78 72 74
4.477072 0.545907 1.959318 78 64 63
5.314045 0.236099 1.822523 108 97 91
5.094782 -0.090749 1.855780 72 57 52
5.726868 0.814982 1.750331 250 250 242
4.640175 -0.370619 1.905706 243 229 226
5.583856 -0.715299 1.713245 255 250 243
5.684836 0.491075 1.743320 240 236 225
4.772350 0.872103 1.936352 70 62 59
5.687685 0.320493 1.741005 253 243 234
5.480761 0.321696 1.786276 93 80 72
5.880365 0.495350 1.705065 229 231 226
5.727129 0.244761 1.741252 72 63 58
5.845097 0.811822 1.730305 92 78 78
5.794104 0.004221 1.702924 69 58 56
5.507838 0.727306 1.788822 250 252 251
5.756474 -0.479829 1.692477 98 84 84
5.622726 0.403190 1.761438 90 83 77
5.785866 -0.732460 1.671297 249 234 231
5.639651 -0.288649 1.730287 62 61 59
5.078438 -0.249860 1.848201 87 74 66
4.850265 0.451704 1.909220 118 114 115
5.652569 0.805835 1.767558 82 74 71
5.661283 -0.237315 1.728226 81 72 65
5.047617 -0.486580 1.844468 242 243 237
5.585073 -0.003967 1.747116 230 212 202
5.575170 0.238595 1.763281 235 230 227
4.614830 -0.406568 1.902881 255 254 246
5.814754 0.174208 1.707287 227 207 200
4.638737 -0.179267 1.934927 85 80 77
5.188384 0.510891 1.850928 94 84 85
5.600697 -0.232762 1.739200 255 245 240
5.064958 0.884531 1.892463 64 63 58
5.917753 -0.158572 1.663934 215 198 188
5.885109 0.730544 1.714867 89 68 65
5.696794 0.806605 1.759305 100 89 83
4.804001 0.638014 1.924807 237 230 222
5.712351 0.971892 1.761952 98 89 90
5.057724 0.799535 1.883023 210 209 205
5.900402 -0.066544 1.678307 255 255 251
4.422939 0.140506 1.967261 89 81 79
4.497882 -0.658835 1.909431 89 85 74
5.561231 0.243143 1.773395 89 78 72
5.855667 -0.137575 1.687272 109 103 103
5.798924 0.653333 1.725894 253 253 241
4.794834 -0.164606 1.895414 241 224 216
4.972556 -0.414538 1.861833 79 72 62
5.297719 0.166353 1.820136 145 126 122
5.572192 -0.003822 1.754324 227 207 198
5.439354 -0.074544 1.779443 234 230 221
5.692068 0.970745 1.774333 70 48 51
5.579123 -0.553419 1.722551 255 254 243
5.797240 0.895290 1.749137 66 60 62
5.101132 -0.478628 1.812893 255 254 249
5.394602 -0.638873 1.762636 252 249 240
5.564810 0.001388 1.759096 88 75 67
5.655410 1.114791 1.757908 58 57 55
5.117609 0.643816 1.865968 254 252 253
5.244144 0.804207 1.842645 254 235 229
4.830336 -0.649059 1.866838 255 253 244
5.704669 0.170915 1.728920 255 252 244
5.857628 -0.252519 1.680745 104 95 98
5.463256 -0.794273 1.724190 254 240 227
5.896101 -0.078550 1.679522 255 252 243
5.873209 -0.320578 1.670728 251 238 232
4.651175 -0.016633 1.933776 83 75 73
4.790095 0.873613 1.935574 71 66 63
5.002124 0.632656 1.889495 223 205 195
5.731164 -0.957194 1.670976 236 230 218
4.486027 -0.569285 1.920349 234 222 210
5.820224 -0.561106 1.668577 109 92 82
5.465870 0.006820 1.785994 234 214 203
5.406040 -0.892219 1.739231 101 91 82
4.825004 0.887586 1.940497 229 226 221
5.719264 0.965122 1.748886 102 88 88
5.543900 0.571309 1.781284 228 225 218
5.946185 0.415814 1.690504 240 240 230
5.837833 -0.229563 1.688191 255 253 246
4.511791 -0.016871 1.957152 83 74 67
4.674453 0.234809 1.931930 255 255 243
5.521227 0.157566 1.779266 95 80 75
5.872333 0.814344 1.710363 241 230 224
5.131219 -0.481337 1.817390 255 249 242
5.067646 0.473662 1.882275 87 77 76
4.967248 -0.000835 1.879715 245 242 237
5.646050 0.001989 1.740170 105 98 92
5.749749 0.324510 1.734018 89 84 81
5.681657 0.002497 1.731305 95 85 75
5.780138 -0.160046 1.708709 68 63 60
5.252737 -0.559046 1.790357 255 253 244
5.414335 0.871738 1.813904 65 47 47
5.673180 -0.643137 1.708357 89 79 69
5.615399 0.991364 1.754947 130 126 123
5.749061 0.807055 1.745690 98 88 87
5.917913 0.245983 1.688597 92 84 82
5.377255 -0.169407 1.786707 255 250 241
5.318901 0.962217 1.833687 102 102 100
5.125072 0.562911 1.860202 253 253 245
5.555516 0.652375 1.775134 255 247 238
4.735275 0.157363 1.921672 250 255 249
5.767503 -0.160913 1.713579 79 71 69
5.735608 -0.320501 1.710082 95 88 80
5.849885 -0.110873 1.685423 255 231 224
5.385905 0.072437 1.790675 223 201 188
5.736810 0.163476 1.731236 83 70 62
5.068882 0.886182 1.896529 65 62 57
5.189766 0.532365 1.852033 61 51 50
5.753647 0.116613 1.714435 255 252 234
5.143489 0.394140 1.863337 245 228 220
5.526666 -0.000610 1.768155 238 240 237
5.488646 0.160772 1.783870 181 178 171
4.514946 0.795093 1.966288 223 214 207
5.980871 0.005546 1.672043 68 62 62
5.871068 0.887631 1.721905 116 98 96
5.443688 -0.811774 1.729064 255 250 237
5.753408 0.128602 1.714572 255 254 239
5.852959 -0.483170 1.666671 245 229 213
5.244574 0.888393 1.846897 106 91 88
4.614614 0.627792 1.954029 96 91 88
5.748397 -0.026822 1.717761 122 120 123
5.550556 0.725936 1.794129 113 98 101
4.589975 0.141851 1.941255 225 207 195
5.824552 0.406863 1.722073 80 75 71
4.569476 0.061885 1.955057 101 98 89
5.970508 0.611682 1.698884 109 97 97
5.318531 -0.168789 1.798515 255 253 244
5.974791 -0.397272 1.658729 97 86 82
5.075099 -0.399545 1.835000 226 213 205
5.498918 -0.975038 1.711810 245 228 220
5.767057 -0.726701 1.674944 250 243 235
4.759570 0.641979 1.948446 238 229 220
5.188634 0.381416 1.855677 101 92 93
5.166162 0.795903 1.859119 78 60 60
5.843956 0.005836 1.678284 99 89 88
5.920624 0.235781 1.673582 232 218 215
5.650034 -0.597623 1.710026 60 58 59
4.973175 0.962709 1.884752 230 234 233
5.674455 -0.567361 1.697570 247 234 215
4.617336 0.868921 1.958150 77 73 74
4.905452 -0.327465 1.869789 251 244 238
5.721045 -0.314294 1.718541 255 253 241
4.544198 -0.568695 1.906853 255 249 233
5.913873 -0.066785 1.677780 255 254 252
5.899557 -0.631985 1.659436 245 228 220
5.796990 -0.323505 1.686717 228 208 199
4.772152 -0.899616 1.853844 109 100 93
5.982791 0.241228 1.673638 250 229 224
5.189766 0.532365 1.852033 61 51 50
5.869462 -0.468575 1.667216 247 233 224
5.751072 0.736599 1.737681 255 252 246
5.509227 -0.135645 1.762561 86 55 52
5.526967 -0.342362 1.750828 240 239 237
5.812588 0.898008 1.737287 208 198 189
4.873628 -0.086160 1.896033 255 255 250
5.413015 -0.804661 1.749895 77 70 62
5.206230 -0.924249 1.761947 255 253 237
5.756223 0.003045 1.722482 66 57 58
5.228406 -0.242423 1.822615 255 251 245
4.308794 0.391012 1.990386 246 249 238
4.551982 0.742309 1.962358 143 128 121
4.955348 -0.085562 1.879420 234 227 221
5.175802 0.398669 1.860900 82 73 66
4.639502 0.798138 1.959575 245 244 239
4.660442 0.224068 1.932381 255 254 243
5.591367 0.727324 1.771887 238 240 235
4.639632 0.113987 1.931144 134 128 128
5.722661 0.170841 1.726990 255 255 243
5.747603 -0.642085 1.692975 84 75 68
4.731759 -0.487610 1.896779 244 224 215
4.862642 -0.378220 1.875345 91 85 89
5.309678 -0.493073 1.783601 230 202 190
5.414014 -0.279943 1.773777 87 78 79
5.393887 0.087295 1.791170 255 255 244
5.903097 -0.468408 1.661783 250 235 228
5.689610 -0.071082 1.727986 255 254 248
4.680768 0.064966 1.924568 88 83 79
4.823315 0.546427 1.912815 227 208 202
5.965659 -0.223904 1.659501 218 191 184
4.836958 -0.894472 1.836074 116 106 94
5.497689 1.144022 1.784152 53 53 53
5.591825 -0.312299 1.732962 254 243 237
5.945318 0.494629 1.682557 255 255 244
5.439157 -0.477100 1.766927 245 234 228
5.260737 0.555251 1.837254 255 245 238
5.747408 -0.351301 1.701938 255 255 253
5.473795 -0.969938 1.708227 255 251 243
5.861065 0.054504 1.693003 96 79 87
5.784798 0.727766 1.731369 109 94 89
5.733701 0.415441 1.743367 214 215 209
5.096080 -0.814620 1.798428 110 106 103
4.564013 -0.739061 1.897819 89 89 81
4.853172 -0.166982 1.894074 232 223 216
5.768950 0.641209 1.725362 255 253 234
5.865355 0.160593 1.689996 246 226 215
5.414579 0.352621 1.801028 255 244 240
4.799337 0.304516 1.911467 240 207 198
5.708513 0.238627 1.731118 234 219 212
5.408154 0.974420 1.802239 250 252 249
5.795091 -0.403098 1.686638 244 225 211
5.748733 -0.228659 1.709414 230 229 227
5.747263 0.129641 1.721278 247 238 231
5.643738 -0.086360 1.734983 205 185 176
5.881649 0.079343 1.688028 235 223 211
4.748444 0.017849 1.910616 98 96 99
5.869303 0.811448 1.721553 81 71 72
5.721681 -0.886072 1.681307 99 95 83
4.606878 0.783506 1.946875 218 199 193
5.706176 -0.230109 1.709044 254 254 246
4.535412 0.379185 1.947742 213 195 185
5.276559 0.567584 1.836318 255 253 247
5.642981 -0.268003 1.725782 253 250 241
4.784525 -0.098247 1.898075 238 231 212
5.938300 -0.000183 1.674069 249 250 245
5.801793 0.731252 1.739328 130 123 113
4.989836 -0.753227 1.819983 255 240 225
5.726694 -0.309726 1.699273 255 254 241
5.265462 -0.169483 1.813958 79 74 68
5.887025 0.010359 1.684751 240 237 232
5.025321 -0.881808 1.799206 237 229 226
4.860192 -0.692211 1.847527 95 89 93
4.459787 0.070524 1.947236 255 255 246
5.280272 0.070438 1.817530 244 222 211
4.989851 -0.748288 1.820886 255 241 227
5.471515 -0.810882 1.723069 255 255 236
5.732354 1.031677 1.740429 39 37 42
5.722863 0.077587 1.719427 249 236 220
5.743764 -0.633951 1.687478 251 232 226
5.121451 -0.321879 1.827449 250 239 235
5.979188 -0.182217 1.668177 75 71 72
4.403041 -0.022255 1.955957 245 235 226
5.749850 0.251095 1.721947 255 251 243
5.958727 0.081679 1.666473 255 242 234
4.888923 0.071688 1.899930 88 84 75
4.617442 -0.169794 1.925890 255 254 248
5.704580 0.076638 1.721734 254 237 221
5.525519 -0.555971 1.747987 214 199 194
5.430485 0.264089 1.793413 140 123 113
4.296827 0.382301 1.992991 97 88 89
5.901189 0.246428 1.691502 81 77 74
5.867835 -0.450585 1.676969 98 89 92
5.045528 -0.959256 1.787848 245 236 221
5.863526 0.402840 1.700811 255 254 236
5.638624 0.812454 1.766826 248 255 255
5.506455 0.154703 1.773591 252 229 223
4.937110 0.233155 1.888606 63 56 50
5.838860 -0.563491 1.667637 255 242 225
5.594538 0.491235 1.768336 253 240 234
5.847368 0.473582 1.701678 255 252 240
5.405325 0.327738 1.804286 255 248 238
5.417584 0.643972 1.811005 95 86 79
5.577527 1.144518 1.772598 36 34 37
4.821714 -0.164075 1.889792 222 209 200
5.039022 -0.168555 1.860840 82 68 59
5.760334 -0.660634 1.685076 85 85 83
5.711993 -0.481771 1.708082 98 91 85
4.408599 -0.250854 1.947440 231 222 215
5.507509 -0.551142 1.732739 255 245 239
5.334933 0.096216 1.811044 255 226 220
5.384474 -0.328129 1.781096 255 246 236
5.160065 -1.043088 1.766452 239 226 217
5.880482 0.332408 1.696955 255 249 244
5.355843 0.232280 1.805341 247 217 206
4.972798 -0.498376 1.841500 222 203 186
4.992898 -0.891500 1.804821 101 90 84
5.891322 0.160877 1.685106 251 228 220
5.260037 -0.475187 1.790613 108 97 93
5.679840 -0.310320 1.712594 255 255 243
5.741547 0.629693 1.736513 117 111 111
5.865510 0.245058 1.704622 108 97 93
5.705004 0.778927 1.747870 123 98 91
5.777549 -0.469607 1.686260 255 254 242
5.543133 0.483817 1.783413 85 78 70
5.939153 0.491886 1.694388 93 83 81
5.072853 0.875714 1.878909 73 60 52
5.123792 -0.651513 1.800187 255 254 244
5.895182 -0.160334 1.675501 181 162 155
4.839363 0.875798 1.925639 37 31 31
5.961318 0.305133 1.681951 243 221 208
5.743781 0.444264 1.732854 89 84 88
4.556650 0.745848 1.964181 239 228 222
5.894460 -0.550746 1.661520 255 250 245
5.659053 0.811859 1.758636 241 250 249
4.881924 -0.897825 1.831234 106 88 78
5.201196 -0.885015 1.773793 247 250 243
4.571108 0.227185 1.941631 70 66 65
5.094707 0.801154 1.867024 222 217 213
5.660523 0.412261 1.749146 255 250 246
5.286537 -0.330214 1.799122 231 216 209
5.903916 0.333826 1.692442 238 229 222
5.178416 0.559380 1.859058 63 52 50
5.552476 0.166454 1.771403 132 127 123
5.733009 -0.548826 1.689490 255 255 243
5.869819 -0.403365 1.670821 223 195 184
5.668971 0.899080 1.776138 208 198 196
