ply
            format ascii 1.0
            element vertex 16652
            property float x
            property float y
            property float z
            property uchar red
            property uchar green
            property uchar blue
            end_header
0.607038 1.294307 2.201012 188 215 222
-0.275257 0.650999 2.280580 241 237 228
0.395844 -0.728735 2.263406 67 57 47
0.937703 0.346185 2.281268 254 255 243
0.479628 0.014042 2.284765 255 253 247
0.028511 0.813182 2.282609 194 193 189
0.824134 0.259542 2.283183 236 230 216
0.932271 0.737949 2.281474 55 50 46
0.244699 0.236436 2.287135 222 216 202
0.074347 -0.244352 2.280127 82 78 67
-0.036602 0.403324 2.284715 77 68 59
0.206355 -0.477473 2.269572 255 255 248
-0.069609 -0.568543 2.264582 64 55 48
-0.206112 0.156494 2.279563 83 73 64
0.370554 0.491171 2.289357 58 47 45
0.504336 -0.159753 2.284980 71 65 53
0.030945 0.086727 2.280053 193 189 188
0.531992 -0.809005 2.258365 58 51 43
1.185257 0.094745 2.269231 77 69 66
0.376161 0.497723 2.287606 255 247 245
-0.188289 -0.317469 2.268816 234 231 222
0.589692 0.581391 2.286036 255 252 242
1.152696 -1.047176 2.247867 70 63 53
0.133828 0.568190 2.291833 55 45 43
1.046640 0.183266 2.277960 255 255 239
1.141345 0.819055 2.284441 75 65 63
-0.298274 0.001361 2.266494 228 229 221
0.402498 0.498580 2.288296 255 250 254
0.413993 -0.472060 2.271879 243 234 219
1.087739 0.182764 2.271233 255 254 242
0.423528 0.492966 2.289139 61 46 41
0.176212 -0.082333 2.286284 66 57 52
0.365860 0.657550 2.287627 255 254 248
0.590207 0.003995 2.283657 86 73 65
0.510385 -0.237748 2.280882 72 65 57
0.501237 0.731866 2.287703 86 76 67
0.498963 1.215247 2.200018 192 208 208
1.056520 -0.545537 2.258729 255 253 249
0.843727 -0.395777 2.271794 73 63 53
0.119988 0.323818 2.288232 78 71 61
0.854144 -0.803471 2.249836 73 63 53
0.880520 -1.130466 2.241136 76 64 52
0.610918 0.340068 2.286098 241 239 226
0.046943 -0.559105 2.265423 249 244 238
1.048432 -0.883510 2.252933 74 67 57
0.561671 0.421038 2.289049 244 234 224
0.847921 -0.969983 2.252951 82 74 61
-0.036540 0.087501 2.281141 255 254 249
-0.285644 0.650522 2.281566 255 253 243
0.153902 0.736541 2.288107 206 202 201
0.492547 -1.216865 2.239512 54 47 37
0.412286 0.739178 2.289606 255 252 238
-0.195391 0.084675 2.275427 255 253 254
0.879616 0.259962 2.281744 255 255 240
0.168135 0.638614 2.283215 216 199 192
0.599517 0.573932 2.286901 70 59 55
1.113457 -0.310533 2.268735 70 55 58
-0.190991 0.247969 2.279055 245 238 230
0.258880 1.281813 2.198813 36 34 35
1.094675 -0.151588 2.272348 56 45 39
0.513725 -0.311030 2.276366 255 254 242
0.492547 -1.216865 2.239512 54 47 37
-0.180147 -0.319907 2.269188 239 236 229
-0.058094 0.733121 2.283404 251 249 234
-0.078475 -0.165928 2.280222 80 71 62
0.357502 -0.809934 2.259717 78 69 62
0.618809 0.739788 2.286006 255 253 248
0.931485 0.497561 2.279876 53 43 41
0.931485 0.497561 2.279876 53 43 41
0.302939 -0.152944 2.280509 255 253 239
0.995938 -1.139687 2.243338 215 214 196
0.358242 1.214137 2.200212 213 227 227
-0.213570 0.083660 2.272330 248 247 245
0.951934 0.583802 2.279575 240 230 218
0.398330 -0.809673 2.258184 65 56 47
0.980576 0.173717 2.276984 67 60 54
0.504336 -0.159753 2.284980 71 65 53
0.144192 -0.315973 2.273724 241 223 211
-0.184187 0.401959 2.283951 57 46 40
0.705730 0.096080 2.283990 255 254 244
0.187782 0.575077 2.285500 253 254 246
0.824503 0.259605 2.282434 240 231 216
1.200642 0.423009 2.288823 72 60 60
0.345299 0.416123 2.288604 252 250 237
0.158372 0.728047 2.289045 76 63 57
-0.183769 0.810397 2.282427 232 228 225
1.089903 0.332822 2.277809 220 203 196
1.093912 -0.151420 2.270137 56 45 39
0.848790 -1.131349 2.244082 66 52 51
1.049765 -0.075393 2.268299 211 188 180
0.283887 -0.813483 2.261126 28 23 19
0.034261 0.566011 2.281830 58 47 45
0.872116 -0.153581 2.277932 72 61 57
1.193259 0.345360 2.272906 242 235 225
-0.068082 0.078063 2.282726 80 72 69
0.638872 0.005231 2.286364 74 71 66
0.039087 0.808824 2.286265 43 29 29
1.109634 -0.718784 2.257158 71 58 49
1.197313 0.587861 2.275999 251 237 234
0.052759 0.405649 2.287928 67 63 52
0.120515 -0.985536 2.249564 209 191 181
1.024921 -0.800654 2.251419 73 58 53
0.181380 0.810036 2.290894 37 27 26
1.024921 -0.800654 2.251419 73 58 53
1.193871 -0.391262 2.267456 75 65 55
-0.305168 -0.162737 2.269387 255 244 237
0.982620 0.260276 2.275357 255 251 243
0.501237 0.731866 2.287703 86 76 67
1.104867 0.822054 2.284593 43 28 33
0.482210 0.492824 2.285102 72 59 53
1.051273 -0.069261 2.272173 77 63 62
0.431135 -0.646322 2.269186 64 55 48
0.713852 0.340149 2.285142 204 200 189
-0.213588 0.083834 2.272330 248 247 245
0.967429 -0.064744 2.274230 255 255 239
1.200642 0.423009 2.288823 72 60 60
0.370746 -0.480945 2.273533 74 64 55
0.877315 -0.547023 2.260098 255 242 239
0.600220 1.286205 2.201773 50 48 49
-0.169042 -0.237834 2.267558 68 32 34
0.052101 0.808846 2.285951 41 32 33
-0.253851 0.406611 2.274521 255 252 254
0.414492 -0.729131 2.264861 75 65 56
1.085835 0.507464 2.278541 239 237 225
0.741644 0.340460 2.284299 255 249 241
0.390524 -0.229303 2.278039 237 229 218
-0.263929 -0.573111 2.267482 63 49 48
1.141784 -0.387872 2.265103 58 49 42
-0.175100 0.157350 2.281686 85 72 63
0.711752 0.504267 2.284751 233 229 217
0.859702 0.824487 2.283298 194 193 188
0.183262 0.569715 2.293845 57 46 40
-0.025014 -0.567009 2.262403 78 65 59
0.277553 -0.718104 2.257545 222 204 190
0.283887 -0.813483 2.261126 28 23 19
0.904250 0.255108 2.284847 58 49 44
0.606817 1.206425 2.198676 9 7 8
0.765547 -0.315169 2.278740 66 56 54
0.735847 0.258875 2.283525 255 254 241
0.699030 0.502015 2.285362 255 255 248
0.876494 0.423045 2.280886 255 252 247
1.177189 0.510025 2.276189 244 240 229
0.675027 -0.888376 2.254600 41 40 38
0.933100 -0.065212 2.273452 255 252 244
0.986537 0.007705 2.277095 90 83 73
0.259567 -0.080012 2.286033 63 52 46
1.085353 0.342878 2.275843 249 241 230
0.158423 -0.081475 2.285570 42 31 25
1.177719 0.747929 2.279716 234 231 226
0.532703 1.126190 2.259538 41 33 44
0.675406 -0.889655 2.256963 41 40 38
0.851532 0.015598 2.277956 255 252 238
0.182784 -0.161260 2.285476 76 67 58
1.029338 -0.633871 2.258829 63 52 46
1.091920 0.585367 2.275723 255 251 232
-0.125342 -0.651240 2.263600 90 79 73
0.599310 0.574197 2.288111 71 60 56
-0.096677 0.726247 2.287113 70 61 56
0.270547 0.810015 2.287434 33 21 21
0.651724 -1.294996 2.236545 58 47 41
0.704090 -0.630726 2.259388 255 249 230
0.602016 -0.723735 2.262168 65 50 43
0.952003 0.490983 2.279048 221 216 213
0.979530 -0.302580 2.268885 116 92 90
0.444218 -0.726694 2.258206 88 78 68
1.051139 0.018253 2.272556 255 253 242
0.392545 -0.894335 2.254517 76 67 60
1.108692 0.183360 2.272184 255 253 241
0.874368 0.259321 2.280551 255 254 241
0.948294 0.739410 2.285911 55 47 44
0.281293 -0.476370 2.271377 255 251 240
-0.169712 0.492454 2.279399 241 236 230
-0.145747 -0.007250 2.280857 77 71 59
-0.253559 -0.249867 2.269692 87 80 72
-0.263028 0.076056 2.273694 72 61 55
0.313360 -1.048533 2.246911 227 220 212
0.524643 0.659928 2.289230 255 255 248
0.686146 0.809442 2.287209 71 66 63
0.790636 -0.723433 2.262473 76 72 60
0.760036 -0.235160 2.278336 75 66 61
-0.210527 0.325316 2.276397 244 226 216
0.183026 0.233936 2.286402 207 183 171
0.467130 1.205675 2.204143 46 45 40
0.611507 0.096308 2.287258 255 255 248
0.119988 0.323818 2.288232 78 71 61
0.274433 0.649506 2.290613 71 58 52
0.713358 0.325260 2.284303 217 200 193
0.040539 -0.972172 2.247296 217 200 193
1.208944 -0.222502 2.265461 255 252 243
0.616706 -0.972319 2.251518 71 62 55
1.161513 0.580798 2.275635 70 59 57
0.841211 -0.387166 2.271430 252 235 225
1.095327 0.668371 2.279458 231 227 216
0.769290 -1.206857 2.239984 255 245 241
0.184949 0.728815 2.288753 77 68 59
0.441896 0.732981 2.292845 79 72 64
-0.263929 -0.573111 2.267482 63 49 48
0.400418 1.130117 2.259983 238 255 255
0.600267 -0.389136 2.271708 255 248 237
-0.169857 -0.247229 2.272184 67 54 46
0.425480 0.093583 2.287516 255 251 252
0.693753 -0.075278 2.282893 84 77 71
-0.311982 0.730126 2.282618 213 204 199
0.850527 0.089273 2.286438 75 68 60
0.331017 -1.048857 2.246177 249 236 228
0.758156 0.341645 2.283984 254 254 246
0.941339 0.496818 2.276642 65 50 47
0.707844 1.285526 2.199225 38 36 37
0.525159 0.086691 2.292289 61 52 47
0.024898 0.249743 2.284416 230 227 222
0.095195 0.814138 2.282430 212 208 205
0.210612 0.083270 2.288191 68 60 49
0.695778 0.735414 2.286213 77 69 58
1.153362 0.830714 2.280382 216 216 216
0.100324 -0.886743 2.252191 255 255 244
-0.166816 0.401243 2.281448 47 33 30
1.069867 0.736599 2.280151 82 73 68
0.968742 0.584021 2.279698 253 233 222
0.304529 -1.058410 2.247038 74 67 57
-0.166907 0.731835 2.281769 234 229 223
0.963076 0.583320 2.278412 255 251 236
-0.326230 0.408124 2.279878 255 255 248
0.429289 -0.320193 2.274560 75 66 57
0.880942 0.658231 2.286491 85 76 69
-0.181981 0.083723 2.272579 253 249 246
0.579042 -0.642674 2.271124 69 60 53
0.972236 0.259777 2.277835 255 251 243
0.910001 0.262861 2.282519 241 227 218
1.167448 0.587556 2.275912 252 246 234
0.755889 0.583783 2.283812 242 236 224
0.653765 0.005529 2.288048 86 81 75
0.086031 -0.567034 2.265783 79 68 62
0.012561 0.167715 2.285423 255 248 243
0.988467 0.821641 2.288158 63 55 53
0.813088 -0.396512 2.274620 72 58 55
0.662744 -0.309974 2.276203 247 245 233
0.280225 0.737112 2.290581 248 242 230
0.200317 -0.967452 2.250027 251 239 227
1.034607 -0.879759 2.249346 69 59 47
-0.292566 -0.400959 2.265006 238 231 223
1.162257 -0.303782 2.265286 255 250 243
-0.168182 -0.820983 2.262307 63 53 44
0.461658 1.291821 2.202989 220 239 243
0.868760 0.664568 2.280441 232 227 223
0.601514 -0.069127 2.281553 238 228 219
0.613200 0.012393 2.282538 255 255 250
1.002781 -0.143631 2.270721 246 237 222
0.244517 -0.325616 2.283445 65 57 46
-0.071431 -0.560674 2.261684 214 198 183
0.421130 0.818758 2.288926 231 232 226
0.421796 0.811301 2.284160 65 57 55
0.616706 -0.972319 2.251518 71 62 55
0.590624 -0.559130 2.267102 53 37 37
0.954999 0.897490 2.283894 72 71 69
0.923152 0.739019 2.284546 46 37 32
0.085400 -0.566928 2.265475 79 68 62
1.092731 -0.462561 2.258449 246 236 226
-0.084219 -0.241114 2.274666 250 255 249
0.392545 -0.894335 2.254517 76 67 60
0.974678 -1.219637 2.240515 232 229 222
-0.089795 0.321166 2.282325 86 73 67
0.831449 0.088795 2.276125 50 41 34
-0.075615 0.084679 2.281888 241 238 229
0.651724 -1.294996 2.236545 58 47 41
0.023157 -0.652408 2.264475 80 73 67
1.193385 0.338644 2.274972 77 63 62
0.613510 1.287967 2.203136 39 28 32
0.503691 -0.471972 2.270592 249 235 222
0.747246 0.743503 2.282208 250 253 246
0.601924 -0.723367 2.261450 65 50 43
0.196608 0.399704 2.284572 231 213 203
-0.145747 -0.007250 2.280857 77 71 59
0.840066 0.576726 2.282448 77 66 62
0.408018 -0.472717 2.271353 255 247 237
0.361036 0.818536 2.287037 248 240 237
-0.083145 0.726390 2.286885 64 54 45
0.542340 -0.631836 2.266004 218 195 181
-0.071755 0.731797 2.281744 238 235 226
1.100420 0.183567 2.273876 255 253 244
-0.309997 0.563748 2.279650 55 52 45
0.388797 0.165800 2.284747 84 70 61
0.456883 1.215508 2.201067 185 193 195
0.670828 1.286565 2.199911 38 36 37
-0.043471 -0.308039 2.269024 67 34 25
0.758984 -0.796711 2.257108 251 244 228
-0.321595 -0.242438 2.268512 246 242 243
0.830814 0.416246 2.286753 65 56 51
0.207999 0.236848 2.286690 255 242 230
0.884469 -1.214684 2.243244 77 63 54
0.959022 -1.139314 2.241930 242 232 222
1.056053 -0.634452 2.256395 81 66 63
0.724598 0.744620 2.284630 249 250 242
-0.136081 0.331102 2.281182 220 198 187
-0.150711 0.328661 2.279320 237 214 208
0.880392 -0.957937 2.246979 240 232 219
0.633163 0.824061 2.291310 234 229 223
0.429376 -0.810965 2.262055 75 66 59
0.002688 1.123226 2.257002 239 255 255
0.631126 -0.157683 2.285535 78 69 62
0.166902 1.206645 2.201336 223 242 238
0.194545 -0.073805 2.283423 237 220 213
0.443290 -0.085579 2.280585 237 230 222
0.384867 1.212420 2.200327 201 211 210
0.274335 0.414186 2.288663 241 240 235
0.775501 -0.559437 2.268071 73 64 57
0.554083 -0.561093 2.274256 59 43 43
0.044255 -0.398404 2.274344 243 238 235
-0.211503 0.810134 2.284653 204 203 199
0.987058 0.181284 2.276647 244 235 228
0.584403 -0.150770 2.281204 255 252 243
0.419663 0.330281 2.293450 72 63 58
0.220942 0.408450 2.288181 77 67 58
-0.173098 0.646870 2.283879 52 43 36
0.123990 0.727813 2.289266 62 52 50
0.230458 -0.403901 2.277210 62 51 45
-0.093072 -0.321003 2.270302 252 246 246
-0.009785 -0.328057 2.277742 99 87 73
-0.055108 -0.971091 2.246706 213 202 198
1.200180 0.010316 2.273076 68 60 49
-0.336401 0.407746 2.277769 242 239 230
0.350044 -1.059538 2.253019 69 57 45
0.619389 1.213582 2.200575 209 224 219
1.059825 -0.304807 2.269121 255 251 239
1.149684 -0.395392 2.259342 232 222 221
0.582878 0.414521 2.291105 71 64 58
0.167762 -1.051273 2.246765 255 244 237
0.439411 1.213173 2.200035 224 236 236
0.226212 0.333010 2.287834 255 255 246
1.064692 0.585222 2.275825 244 238 226
0.333853 1.211484 2.201765 216 231 226
0.117498 0.081062 2.287067 54 41 33
0.289997 -0.241879 2.283561 89 77 65
-0.211593 0.569933 2.281189 241 237 226
0.395338 0.814357 2.290660 58 51 45
0.402667 0.651904 2.287097 58 47 43
0.954319 -0.305865 2.271902 255 253 246
0.392449 -0.152965 2.282400 255 249 241
0.648818 0.416091 2.293654 75 64 58
0.740742 -0.467552 2.270287 244 234 224
0.232251 1.282799 2.202320 32 31 29
0.280480 0.002459 2.290156 67 56 50
0.044846 -0.823338 2.253201 220 208 192
0.888848 0.253918 2.284732 74 65 58
0.428301 1.064510 2.262070 40 40 42
0.565875 -0.810172 2.264101 70 63 55
0.559238 1.131190 2.256697 228 252 255
0.399918 0.011366 2.286182 255 250 245
0.070974 -0.084159 2.278942 87 77 67
0.618915 -1.136585 2.244819 86 72 63
0.264485 1.290413 2.200906 233 249 249
0.695759 0.583789 2.284201 232 225 215
0.560326 0.569880 2.288945 48 43 40
0.583561 -0.305720 2.276516 208 207 203
0.739132 -0.234619 2.282399 73 64 59
0.819810 -1.205905 2.239950 234 227 221
-0.278723 -0.579159 2.259015 255 247 238
0.391787 -0.068383 2.280623 82 54 51
0.304904 0.077597 2.286022 247 230 220
-0.168182 -0.820983 2.262307 63 53 44
0.271952 -0.229200 2.279282 60 36 24
0.356050 -0.874781 2.253675 255 250 239
1.078444 0.829164 2.280559 209 205 202
0.010538 0.086691 2.282338 247 239 237
-0.039746 0.653655 2.283750 232 226 214
0.821277 -0.072714 2.277160 72 59 53
0.843478 -0.071875 2.275164 76 67 62
0.155272 -0.478070 2.268083 255 252 245
0.369516 0.725398 2.289534 202 189 180
0.378715 0.818635 2.286668 207 203 202
1.127799 0.333811 2.277661 96 86 84
0.634457 0.661315 2.286851 255 254 245
-0.160159 -0.248530 2.276326 71 62 55
-0.027580 -0.558951 2.264040 238 228 218
0.384660 0.093459 2.285075 252 239 222
-0.085550 0.002808 2.275541 254 253 249
-0.281887 0.244704 2.275102 222 209 200
0.855560 0.664690 2.282480 244 241 234
0.605063 1.202068 2.199684 185 186 181
-0.094582 0.402333 2.287396 66 59 49
-0.032317 -0.558880 2.262285 255 251 242
-0.011035 1.123803 2.258751 241 255 255
1.161513 0.580798 2.275635 70 59 57
0.509785 0.337836 2.287328 255 252 243
1.107723 -0.076402 2.268087 254 230 220
0.745254 0.088720 2.289256 80 71 64
1.029875 0.099521 2.276541 255 255 248
0.820658 -1.283159 2.236073 176 176 176
0.400965 -0.472332 2.271820 255 253 243
0.388891 0.165771 2.284775 84 70 61
0.371108 -0.073849 2.284517 255 253 247
0.800040 0.259223 2.280637 250 242 229
-0.002587 0.413120 2.285220 247 246 244
0.721835 -0.629668 2.257237 255 255 236
0.729486 0.905241 2.269950 209 228 226
0.269045 -0.233665 2.279736 237 224 215
0.853717 -0.803674 2.250760 73 63 53
1.079547 0.827215 2.282242 223 219 216
0.002251 0.567250 2.287113 57 47 38
0.153120 -0.075491 2.284598 222 204 200
0.231998 0.013956 2.281553 112 78 77
-0.316169 0.649416 2.282062 245 235 225
0.085279 -0.083870 2.281517 83 73 71
-0.261509 0.810240 2.284129 228 227 222
0.346389 -0.564195 2.268968 93 82 76
-0.274256 -0.655576 2.266720 82 71 65
0.187953 -0.477487 2.266865 255 254 243
0.421533 0.486590 2.286641 194 178 178
1.102705 0.262978 2.275257 253 243 231
0.283138 0.252784 2.289162 255 255 243
0.288703 -0.232715 2.280470 168 156 142
0.091106 -0.485779 2.266922 70 59 55
1.048684 0.009388 2.278047 86 77 72
0.413217 -0.802459 2.257261 239 219 210
0.335214 0.807641 2.286226 219 194 189
0.783534 0.412097 2.284196 86 76 75
0.278406 -0.323711 2.276011 71 62 53
0.918589 -0.153531 2.274514 62 57 53
0.759640 -0.066461 2.278381 230 217 208
0.493983 0.660186 2.289430 232 225 215
0.026896 -0.329026 2.280073 83 76 68
0.389375 0.416329 2.285445 255 255 251
0.153834 0.316601 2.284930 210 189 184
0.711553 0.015081 2.282709 242 239 234
0.795757 -0.111520 2.279353 77 66 72
-0.140411 0.084319 2.276895 255 253 253
0.273828 1.199997 2.195868 60 59 55
0.273866 0.091039 2.288389 247 234 228
-0.138292 -0.087373 2.275483 73 62 56
0.969541 0.017751 2.277328 255 249 237
1.181719 0.659356 2.276639 91 83 72
-0.224864 0.001386 2.275272 254 255 247
0.649884 0.660586 2.284021 255 253 241
0.438876 -0.962309 2.247221 255 251 242
1.148108 0.507684 2.271293 237 237 227
0.196609 -0.394909 2.273678 130 100 92
1.183161 -0.075209 2.264795 245 231 222
-0.239477 0.076974 2.275418 73 64 57
0.590218 0.733765 2.290757 74 67 59
0.293955 0.496869 2.287193 253 248 245
0.483091 0.420464 2.285134 245 242 237
0.876439 -0.720839 2.259335 72 63 54
0.314510 -0.241211 2.284788 86 76 67
0.441881 -0.883186 2.254079 253 239 230
0.530921 0.573241 2.290141 84 73 67
0.545345 -0.238159 2.285665 79 68 62
0.378782 0.819568 2.290560 219 216 211
0.724121 0.014148 2.284339 255 255 250
0.020037 0.809187 2.288307 37 23 22
-0.153805 -0.167406 2.281430 67 58 49
-0.029357 -0.639462 2.259499 255 255 241
0.522697 0.161403 2.285291 221 200 195
0.183242 0.648898 2.286799 36 17 19
0.648586 1.216369 2.203009 192 200 202
0.845607 -0.467000 2.268487 255 250 241
0.183242 0.648898 2.286799 36 17 19
-0.046978 1.123183 2.260734 230 248 250
0.247027 0.569950 2.291117 75 60 57
0.414695 0.341518 2.284884 255 250 245
0.489603 0.004700 2.285044 79 70 63
1.133298 0.184110 2.272662 247 241 227
0.464224 0.579912 2.290895 254 244 234
0.218050 -0.980432 2.257888 67 57 47
0.021269 0.573377 2.283316 255 254 252
0.415165 0.493346 2.290578 54 44 43
0.343928 0.737679 2.292714 255 255 250
0.091106 -0.485779 2.266922 70 59 55
0.428532 0.577792 2.286399 255 249 246
0.100375 0.898990 2.271696 209 214 217
0.292188 -1.129022 2.239127 249 242 234
0.750981 1.216791 2.201442 203 212 211
0.059925 0.330644 2.283069 255 254 249
-0.025173 -0.480993 2.266221 253 241 227
0.125527 -0.161640 2.283927 81 73 62
0.255349 0.722250 2.285311 246 226 217
0.721308 -0.469635 2.269302 255 250 241
-0.236918 -0.411936 2.273331 46 37 30
0.179118 -0.316553 2.275278 253 239 228
0.743719 -0.321599 2.272587 208 192 179
1.007871 0.330823 2.279528 230 221 204
0.099205 0.488527 2.288007 69 60 55
-0.095592 -0.758761 2.256902 48 28 37
0.131804 -0.317021 2.273937 245 219 206
0.191630 0.639999 2.283978 255 254 255
0.562417 1.193516 2.199514 234 246 244
-0.014850 -0.488166 2.270133 85 76 69
0.983454 -0.719773 2.259052 59 46 40
-0.000389 0.492257 2.283093 246 245 240
0.324040 0.328501 2.290398 83 73 63
0.759236 0.735461 2.284413 74 63 57
1.132498 0.087746 2.266982 255 247 242
1.070778 -0.952547 2.241811 255 251 243
0.293332 0.164858 2.289908 69 56 47
0.554628 0.215718 2.286980 61 44 50
0.258280 -0.316255 2.276749 255 254 243
0.618915 -1.136585 2.244819 86 72 63
1.195976 -0.873320 2.245387 218 201 183
-0.022555 0.804638 2.286640 63 53 52
0.620752 -1.044657 2.244474 255 238 224
0.659616 -0.797372 2.256033 255 251 239
0.293332 0.164858 2.289908 69 56 47
-0.066268 0.571755 2.282877 248 231 223
0.473488 0.818656 2.289799 226 226 224
-0.045133 0.810394 2.282970 229 216 210
0.740750 0.743216 2.285627 255 255 250
0.694815 -0.384636 2.273279 255 252 239
1.034642 -1.211826 2.238022 56 48 37
1.114105 -0.151727 2.270735 77 70 62
0.809833 -0.237360 2.281317 79 69 60
0.007259 -0.165152 2.278044 93 89 80
-0.303622 0.885545 2.284018 71 70 66
0.828353 0.825058 2.282743 188 187 182
1.012029 0.909738 2.265163 230 240 242
0.867355 0.502453 2.282628 226 216 206
0.465157 -0.646452 2.270732 55 46 39
0.162528 -0.317910 2.274765 255 246 234
0.577731 1.290148 2.208189 38 38 36
0.686769 -0.557665 2.268934 72 65 55
0.333891 -0.158749 2.283242 62 48 45
0.335537 -0.224548 2.280210 62 37 30
0.568642 1.131409 2.257948 241 255 255
0.163993 0.413796 2.285789 255 254 251
0.055959 -0.083116 2.275938 92 82 73
0.381474 0.174828 2.285784 255 252 241
1.024877 0.584188 2.277988 246 238 227
0.032755 0.573269 2.282538 226 227 222
0.189070 -1.051976 2.247349 255 250 241
1.040833 0.372778 2.273381 249 232 224
0.409424 0.338816 2.285507 66 45 42
0.231097 -0.987133 2.251586 225 198 189
0.311042 0.890621 2.290639 27 26 22
0.232487 0.654808 2.287912 254 255 248
0.736275 -0.797417 2.256163 255 253 241
0.308235 -0.123707 2.281645 82 48 46
0.093780 0.336288 2.287996 220 209 207
0.532771 -1.207157 2.238585 228 217 211
-0.214818 -0.535199 2.260558 216 183 174
0.395279 0.814452 2.290590 58 51 45
1.019808 0.501565 2.283339 64 54 45
0.572976 0.579956 2.283432 255 253 245
-0.322509 0.885077 2.285373 45 44 42
0.768428 -0.713040 2.257379 255 247 242
0.231941 0.251687 2.287986 255 254 242
0.207432 1.295187 2.203347 196 212 212
0.576847 0.501002 2.286237 224 217 211
0.300871 -0.226257 2.278771 255 237 230
0.239976 -1.002053 2.250640 44 32 42
0.188410 -0.317812 2.275393 255 248 245
1.018576 -1.049855 2.248591 75 68 58
0.996305 -0.224358 2.273559 255 243 235
0.515099 1.213634 2.199198 232 248 247
0.555572 0.247325 2.287408 81 76 73
0.146880 0.171223 2.286138 78 41 33
1.180738 -0.305676 2.267454 255 239 229
0.362519 0.577742 2.287198 255 254 250
-0.263217 0.884721 2.284775 58 58 56
0.780801 -0.971271 2.255191 73 65 52
1.188885 0.494872 2.274256 181 176 173
0.953477 0.503421 2.278278 251 229 218
0.757682 0.422390 2.285258 240 237 228
0.569989 1.295286 2.202257 209 225 224
0.480669 -0.818640 2.254189 215 202 194
0.417111 -0.228333 2.278432 255 253 234
-0.224750 -0.653292 2.260228 74 61 53
0.753172 -0.713064 2.259278 255 254 249
0.869649 -0.145366 2.274624 255 254 243
0.121026 0.404697 2.281656 81 71 61
-0.049188 1.115883 2.261607 56 60 61
0.563742 1.127709 2.258563 51 50 56
1.116695 -0.953336 2.242232 227 208 201
1.133333 -0.717572 2.252992 84 71 63
-0.073070 0.158486 2.283078 78 70 57
0.073436 -0.398350 2.272870 255 255 248
0.620430 0.340144 2.285487 255 255 248
0.061645 0.006756 2.282058 255 255 246
0.238005 0.647836 2.288084 73 66 60
0.081334 0.088031 2.284281 243 240 231
0.190133 -0.887959 2.253833 225 211 202
0.216825 -0.485004 2.270472 64 54 45
1.107806 -0.062676 2.273805 255 252 243
0.335537 -0.224548 2.280210 62 37 30
0.245139 1.122842 2.260801 78 75 84
0.218582 1.289965 2.200199 220 245 242
0.607925 0.741412 2.285177 115 89 88
0.559730 0.495356 2.289390 63 56 50
0.942607 -0.790027 2.246530 202 193 184
1.186341 0.747870 2.278162 223 221 209
0.797268 -0.971095 2.255484 84 74 64
-0.254438 -0.563365 2.261723 245 238 230
0.326596 -0.717447 2.258819 223 205 193
0.838703 -1.216343 2.243533 66 55 49
0.369889 -0.229022 2.278740 255 249 236
1.127031 -0.799538 2.250544 76 62 51
1.091911 -1.119480 2.238997 244 226 212
0.101326 -0.000623 2.284208 72 70 58
0.907339 0.089920 2.280555 50 42 39
0.743919 -0.713298 2.258791 251 247 236
0.774425 1.296883 2.204282 236 255 245
0.462345 0.652366 2.288815 72 61 59
1.060371 -0.717095 2.255273 55 42 36
-0.189102 1.116217 2.261385 224 235 231
0.649165 -0.075281 2.289327 64 55 56
-0.218781 -0.367601 2.266644 71 59 69
1.008416 0.822616 2.289372 21 17 16
1.108481 0.827923 2.283298 223 222 217
0.544457 1.193796 2.199466 228 230 227
0.064917 0.561564 2.281513 245 236 221
0.255276 -0.716592 2.259264 214 198 182
0.608447 -0.549775 2.264278 127 103 99
0.662322 0.662878 2.289748 255 253 244
-0.209585 -0.694860 2.258331 68 57 61
1.117907 0.420606 2.281774 80 71 64
0.781547 0.246140 2.287261 109 95 94
0.541511 -0.230803 2.279856 254 250 241
-0.218442 -0.007809 2.272852 66 56 54
0.752499 -0.387897 2.272082 254 244 234
-0.051910 0.004745 2.280244 199 199 197
0.959455 -0.719474 2.256983 72 59 51
0.119456 0.248342 2.290148 239 234 230
0.425789 -0.310149 2.276461 255 255 244
0.801770 -0.562499 2.267765 63 57 57
0.888848 0.253918 2.284732 74 65 58
0.555841 0.004185 2.282833 92 86 74
1.088804 0.426482 2.276149 255 250 246
0.919842 0.746962 2.283329 227 223 220
-0.099517 -0.826258 2.253085 241 223 219
0.394834 0.092456 2.284744 255 251 255
0.683812 0.459254 2.283983 225 217 204
0.760934 0.491842 2.283489 227 213 210
-0.239296 0.109881 2.274853 60 55 52
-0.215788 0.804853 2.285098 57 46 44
0.856297 0.423358 2.279728 126 107 103
0.214604 -0.887526 2.252930 246 231 224
0.908948 -0.064622 2.276398 223 218 215
0.904851 -0.395768 2.274082 68 58 57
-0.171305 1.120377 2.262438 40 41 59
0.522927 0.900609 2.266457 217 233 232
0.534201 -0.077171 2.286298 66 58 47
0.422943 0.418691 2.284855 219 204 197
0.919236 -0.639427 2.260577 65 54 48
0.964299 0.002541 2.273520 214 199 192
-0.162325 -0.481902 2.262717 255 252 245
0.359564 -0.872818 2.251826 255 246 239
0.153892 -0.557544 2.265905 255 253 244
0.254979 1.288682 2.200220 235 255 254
0.101901 0.061053 2.283973 38 29 30
0.230471 0.497498 2.288743 255 255 246
0.334211 -0.886767 2.257963 255 253 241
-0.022843 -0.247070 2.281221 57 49 46
0.345053 1.210511 2.200474 207 219 217
0.566704 -0.568586 2.267383 209 187 173
1.114105 -0.151727 2.270735 77 70 62
1.043930 -0.152968 2.277132 66 56 55
0.208936 -0.325653 2.281722 75 65 56
0.943258 -0.065387 2.271361 255 254 243
0.578476 -0.075983 2.280477 62 57 51
1.018350 -0.069873 2.271523 61 42 48
0.809175 0.825372 2.284076 218 213 209
0.772340 -0.066678 2.277846 255 255 236
0.101906 0.079462 2.288563 78 68 59
0.311042 0.890621 2.290639 27 26 22
0.395857 1.125483 2.260522 56 61 67
0.610150 -0.797830 2.254961 255 250 242
0.610184 -0.878800 2.251852 251 234 218
0.003194 0.412712 2.284362 252 244 242
1.115191 -0.225846 2.272379 47 36 30
1.152066 -0.879728 2.250052 59 49 39
-0.026877 1.119816 2.260665 55 55 55
0.210622 -0.317310 2.275225 255 255 244
0.540438 0.567231 2.287003 245 230 223
0.317721 -0.802628 2.255915 246 223 217
0.409583 0.338608 2.285300 66 45 42
-0.017128 -0.319799 2.270354 247 240 234
0.345157 0.816899 2.294166 42 32 30
0.693065 -0.643267 2.263698 60 50 41
0.050431 0.802464 2.282493 215 210 206
1.028840 0.331165 2.276120 230 218 206
0.640250 1.133951 2.260492 237 255 255
0.285456 0.173808 2.288445 255 251 248
-0.089382 0.885865 2.285506 71 70 68
0.927568 1.217833 2.206554 56 56 54
0.298260 0.003442 2.284088 69 60 51
0.239489 0.890178 2.288414 94 93 91
0.106932 0.723856 2.287670 72 63 58
0.646639 0.012924 2.285310 255 255 248
0.695040 1.215135 2.200779 224 240 239
0.811942 -1.132389 2.246563 61 50 44
0.684140 0.767406 2.286541 91 87 88
-0.169959 0.995730 2.258030 156 171 178
0.585941 -0.230838 2.280202 255 252 244
0.218050 -0.980432 2.257888 67 57 47
0.421058 0.257881 2.286524 92 61 58
0.922515 -0.511930 2.262652 255 248 244
0.944039 0.745552 2.282130 243 240 233
0.526866 0.821528 2.290312 242 242 240
-0.090221 -0.159148 2.275858 255 251 244
0.170242 1.122237 2.259782 49 58 63
0.382939 -0.701598 2.258329 80 51 55
0.761058 -1.206960 2.240037 230 227 220
0.983517 1.217258 2.201786 66 61 58
0.861685 0.016081 2.278196 255 253 246
0.110761 0.676453 2.286408 239 233 233
0.361942 -0.874620 2.250872 65 41 37
0.184052 -0.397815 2.275182 255 252 246
-0.101902 -0.652687 2.269098 88 79 72
0.165296 0.317973 2.283794 244 226 222
-0.054725 -0.077898 2.273247 237 217 210
0.210515 0.894896 2.267266 224 236 234
0.817611 0.738708 2.285546 66 56 54
0.568836 1.213991 2.201175 193 210 204
0.300871 -0.226257 2.278771 255 237 230
0.667282 -0.479696 2.277123 90 77 68
-0.234971 0.402417 2.280013 82 68 59
-0.220878 0.725106 2.284026 54 51 44
0.313765 -0.227424 2.278727 81 48 41
0.390835 -0.065158 2.281758 255 254 246
-0.119070 -0.480865 2.264709 255 255 250
-0.052570 -0.011924 2.274989 237 217 206
0.252831 0.648571 2.290777 65 56 51
0.406295 0.013117 2.283571 123 94 90
0.803189 0.758463 2.281330 70 59 57
0.459863 -0.366851 2.275949 47 33 33
0.744926 -1.280950 2.234080 113 110 105
0.501964 -0.151307 2.282071 255 251 243
0.876843 0.423270 2.282773 255 252 247
0.044756 1.121575 2.260777 38 37 43
0.117758 -0.167265 2.280612 242 229 220
0.231097 -0.987133 2.251586 225 198 189
0.428414 -0.084414 2.282093 221 214 208
0.898170 -0.395849 2.275752 58 44 41
-0.099733 -0.240279 2.274065 255 253 248
1.030323 -0.471806 2.266450 78 69 62
0.055657 -0.317550 2.271565 255 253 250
-0.079535 0.151152 2.279773 245 232 226
-0.157599 -0.402286 2.262228 255 252 244
-0.138292 -0.087373 2.275483 73 62 56
0.799998 0.582810 2.282116 241 238 229
0.524510 -0.230718 2.280120 254 254 244
1.050664 0.828235 2.281058 231 235 236
0.111197 0.405809 2.287900 86 76 67
1.056539 0.729534 2.278871 242 242 252
0.805502 0.583480 2.281998 250 251 245
0.163148 0.170517 2.285759 108 63 60
1.200811 0.748909 2.282475 228 229 221
0.391563 -1.048603 2.246459 255 248 238
0.422143 -0.472316 2.270504 255 255 236
0.722986 0.657258 2.288214 74 64 62
-0.242523 -0.812197 2.255413 255 239 231
0.208478 0.814126 2.285057 255 255 248
-0.095711 -0.737647 2.259945 93 86 80
0.564977 -1.217517 2.241559 66 57 50
0.507952 -0.392027 2.274010 255 255 243
0.767633 -0.889322 2.259819 72 65 57
0.753344 -0.067331 2.279717 255 249 243
0.812604 -1.205783 2.240242 227 222 218
0.398965 -1.061262 2.252565 47 38 29
0.596633 0.488321 2.284259 211 194 186
0.324515 -0.232141 2.279867 255 254 245
1.104517 -1.130137 2.242671 66 56 46
0.270930 -0.737380 2.258751 254 235 228
0.410861 0.903275 2.266884 227 233 233
0.589786 1.294422 2.200673 219 241 239
-0.127764 -0.134375 2.275726 90 86 85
0.522279 -0.077017 2.279522 71 62 53
0.131585 0.153608 2.286172 248 220 208
0.913715 -0.144594 2.275197 254 252 240
0.205013 -1.050092 2.246659 255 253 244
0.805856 -0.960386 2.255659 215 197 187
0.122198 -0.394208 2.270929 107 66 62
0.555841 0.004185 2.282833 92 86 74
-0.123845 -0.410155 2.269473 66 57 50
1.123014 -0.634291 2.259119 77 68 63
0.906887 0.418141 2.283905 78 70 68
1.008460 0.751180 2.282177 198 206 208
1.134446 0.498396 2.276597 71 61 59
-0.092223 -0.816985 2.255624 70 60 51
0.660280 -0.096066 2.278973 255 254 244
1.018391 -0.152633 2.274301 66 61 55
0.554783 -0.565799 2.267910 249 232 216
0.339924 0.808333 2.287590 194 170 166
0.605818 0.900744 2.264184 218 232 232
0.831443 1.286016 2.202823 204 210 208
0.044935 -0.733746 2.266495 53 42 38
0.401047 1.205027 2.200725 39 39 39
-0.144898 0.654212 2.281155 255 255 246
0.049373 -0.076720 2.276914 255 250 241
-0.246603 -0.562971 2.260345 255 254 246
0.178842 0.171540 2.285101 82 38 35
0.316166 -1.049130 2.245989 255 252 246
1.177186 -0.073715 2.267749 244 225 219
0.603210 -0.877162 2.251802 229 206 192
0.838703 -1.216343 2.243533 66 55 49
0.459087 -0.320509 2.278258 104 97 91
0.425404 -0.401888 2.279491 81 68 60
0.598003 0.327331 2.283918 247 232 225
0.467373 -0.320069 2.283997 84 71 63
0.981715 -0.074406 2.271895 248 238 237
0.445337 0.901970 2.273212 235 250 247
0.049196 -0.088966 2.278041 219 196 190
-0.023645 0.805689 2.289089 52 44 42
0.543543 -0.472378 2.270484 255 251 242
0.417164 0.010678 2.282149 255 253 244
0.128070 0.088210 2.284210 247 233 232
0.709849 -0.067466 2.280367 255 253 238
0.108528 0.648008 2.287809 81 68 59
0.238736 -0.486637 2.272822 81 72 65
0.335087 0.727702 2.296987 82 75 69
0.956311 0.507528 2.285503 83 57 56
0.529739 0.094714 2.285775 246 240 228
0.554628 0.215718 2.286980 61 44 50
-0.293351 -0.655620 2.261062 78 69 60
0.560014 0.034886 2.284797 74 62 64
-0.015850 -0.901596 2.257297 68 61 53
0.858972 0.744803 2.279686 254 255 248
0.601197 -0.553379 2.265697 234 215 208
0.465614 0.255303 2.293228 68 58 49
0.312341 1.280994 2.203496 43 46 51
-0.184519 -0.651614 2.258945 92 83 74
0.419663 0.330281 2.293450 72 63 58
1.043930 -0.152968 2.277132 66 56 55
0.621641 -0.878408 2.254695 255 229 213
0.930461 -0.628414 2.256752 255 251 246
0.452650 -0.573313 2.267107 98 73 68
0.443743 -1.140361 2.249172 65 56 51
-0.001983 0.168151 2.284615 244 234 232
0.225438 0.318068 2.285068 238 222 207
0.339229 0.880157 2.288149 224 204 197
0.112152 -1.060906 2.248838 74 65 56
0.194938 0.737036 2.288357 255 255 246
0.472116 1.130222 2.261533 242 255 255
1.032751 -1.201737 2.240809 225 222 207
0.479918 0.579027 2.289344 249 241 228
0.671606 -0.074266 2.286328 83 74 67
0.102713 -0.084192 2.281546 104 95 90
0.268725 -0.084551 2.281839 230 219 213
1.074437 0.019002 2.270188 255 250 241
0.069525 -0.296191 2.275018 85 61 51
0.439088 -0.801619 2.255513 253 235 231
0.225912 -0.152371 2.282220 248 244 235
0.568138 0.014335 2.285358 255 253 253
0.664945 -1.206085 2.238828 72 48 38
0.284865 -0.233911 2.279048 255 253 237
-0.117343 0.817253 2.286335 185 175 173
1.101297 -0.382172 2.257586 253 243 241
0.729439 0.082713 2.284159 232 219 213
0.448601 1.283559 2.202004 21 22 24
-0.051416 -0.640352 2.260034 255 252 236
0.202942 0.574525 2.283592 255 254 250
0.569295 0.851535 2.288651 238 237 232
0.982345 0.493121 2.277713 237 230 224
0.110706 0.876909 2.285679 211 195 182
0.191695 0.237817 2.287742 51 42 37
-0.292373 -0.812439 2.253632 255 235 231
0.225278 1.122583 2.260024 62 65 74
0.200978 -0.081071 2.283196 68 60 49
-0.284418 0.884450 2.284720 69 61 58
0.710001 -0.117414 2.258786 255 250 237
0.683974 0.904153 2.268276 247 255 255
0.364277 1.286157 2.202117 60 62 61
-0.188995 -0.479750 2.264649 108 91 83
-0.055749 -0.899109 2.247971 55 45 35
-0.084310 0.234894 2.279369 230 220 211
0.870569 0.096922 2.282010 255 255 246
0.541648 -0.390948 2.273687 250 242 229
0.867427 -1.285033 2.234564 229 231 218
0.608447 -0.549775 2.264278 127 103 99
0.411301 0.336597 2.283663 255 250 245
-0.008837 0.725742 2.283285 63 52 46
0.881789 -0.146550 2.276218 255 255 241
0.785045 -0.956267 2.245905 239 231 218
-0.089367 -0.085816 2.279615 62 49 43
1.172239 -0.643933 2.254595 238 233 229
1.188592 0.671208 2.280557 239 238 234
0.469442 0.813999 2.292460 54 44 43
0.192558 -0.318001 2.276722 255 249 249
0.560420 1.290549 2.210460 15 11 10
0.986524 -0.874750 2.247657 255 254 242
0.073530 0.812847 2.283419 236 232 229
-0.136978 0.649604 2.288059 57 44 38
0.524978 -0.649791 2.261949 255 231 224
0.502200 -0.567710 2.266747 212 193 187
1.215976 0.018592 2.272696 60 54 42
-0.118189 0.699110 2.284264 61 57 56
0.469142 -1.057058 2.248918 69 62 52
0.908904 -0.230657 2.270153 69 62 56
-0.269469 0.892640 2.272864 230 242 240
-0.193947 -0.089995 2.268182 53 40 24
0.981469 -0.305183 2.265680 255 252 242
0.713780 1.295321 2.202701 235 245 247
0.260761 0.814421 2.286896 255 250 250
0.394836 -0.230889 2.280743 253 246 238
0.783366 -0.321063 2.271874 213 195 191
1.038531 -0.384398 2.264976 255 250 241
-0.171961 -0.236641 2.268273 250 225 220
0.405989 -0.229487 2.278113 255 249 237
0.247361 -0.242303 2.287862 69 57 45
0.933681 0.897279 2.282906 75 74 72
0.891193 0.656418 2.283495 78 69 64
0.768167 -0.239161 2.274831 248 238 229
0.662305 0.734189 2.288468 80 65 58
0.101329 0.734973 2.288779 246 231 224
0.240671 1.118208 2.258743 227 218 213
0.342867 -0.882371 2.248641 255 250 243
0.296262 0.882169 2.264590 74 70 61
0.340363 0.577899 2.289729 252 247 241
0.875142 0.328891 2.279641 239 221 211
0.790104 -1.054206 2.251960 77 60 50
0.411222 -0.635861 2.266899 252 237 230
0.715028 0.584095 2.281616 103 84 80
0.418565 -0.798797 2.256560 90 59 57
0.030381 1.117911 2.264614 68 72 75
-0.164204 1.117350 2.256478 57 62 81
0.300848 0.409391 2.300011 84 74 65
0.224623 -1.145264 2.249517 79 71 60
0.611546 -0.650364 2.261178 241 221 214
0.711754 -0.227348 2.277558 229 216 200
0.834372 0.404437 2.282042 221 211 202
0.292023 0.237729 2.287126 200 182 168
-0.275203 -0.644338 2.259191 255 251 242
1.031826 0.419111 2.283313 74 61 55
1.145659 0.591288 2.279438 236 226 225
0.688715 -0.872748 2.252508 170 150 139
0.610890 1.214033 2.201684 233 252 250
0.904319 -1.132195 2.244987 78 64 53
0.562444 0.730784 2.290476 80 69 63
0.633223 -0.551335 2.267419 82 62 55
-0.154665 -0.562238 2.260282 255 251 244
0.285515 1.122142 2.259968 54 58 70
0.575272 0.456548 2.282089 82 63 56
0.816920 -0.385273 2.269183 141 111 109
0.092941 -0.732529 2.260584 66 57 52
0.811678 -1.304740 2.234933 210 205 201
0.658014 -0.409252 2.271155 84 64 53
1.158077 -0.889210 2.249833 255 241 228
0.645753 -0.471462 2.271035 255 244 233
0.777546 -0.304743 2.275045 245 242 235
0.382939 -0.701598 2.258329 80 51 55
0.997893 0.825711 2.282175 223 223 221
1.189553 -0.887568 2.244698 255 251 241
1.160366 -0.972943 2.242214 240 224 225
0.023720 -0.817903 2.260988 62 48 45
1.038772 0.261212 2.276805 255 250 239
0.553507 -1.222280 2.236030 241 233 222
0.778499 0.200489 2.281952 96 78 74
0.237051 -0.072414 2.281442 123 108 103
0.810313 -1.273324 2.237030 89 89 91
0.223227 -0.162329 2.284994 83 74 67
0.065373 0.722253 2.282783 224 199 192
0.394740 -0.980787 2.247213 231 221 212
0.366355 -0.085283 2.283233 235 226 219
0.538311 0.108301 2.286579 255 248 243
0.359801 0.887600 2.285637 224 226 223
0.619478 -0.552435 2.263528 255 250 244
0.298007 -0.065669 2.281542 77 63 62
0.319068 -0.226488 2.279537 84 54 46
-0.215628 0.890146 2.260970 216 221 224
0.165380 -0.557674 2.266998 255 252 243
0.222482 -0.647433 2.265262 66 57 50
0.252742 -0.975841 2.252104 59 50 41
0.187169 0.000539 2.282560 90 81 72
0.586156 0.162368 2.284613 239 221 217
-0.061891 1.119310 2.264077 65 68 73
1.122660 0.102971 2.273443 253 250 243
0.377946 -0.729860 2.266063 58 45 37
0.520119 0.095763 2.287441 255 251 242
0.203301 0.570829 2.297811 52 41 35
1.161467 0.577750 2.275394 26 6 5
-0.237356 0.601372 2.279898 255 249 242
0.577653 0.661710 2.286454 255 253 248
0.966279 -0.317219 2.268503 220 203 195
0.384668 -0.085586 2.282492 228 223 217
0.740639 0.082685 2.283025 240 225 218
-0.011825 -0.722980 2.254263 255 252 239
0.382935 0.897046 2.264507 232 242 241
0.110308 1.106602 2.263088 39 40 42
0.078599 1.122298 2.261566 71 71 73
0.523488 0.080262 2.283724 236 219 212
0.274234 0.890077 2.288178 69 66 61
0.332270 0.813894 2.291013 51 43 40
0.680266 1.287331 2.199958 45 45 47
0.418302 1.205157 2.203652 63 65 64
0.566704 -0.568586 2.267383 209 187 173
1.190394 -0.708277 2.253505 245 217 206
0.984193 -0.399503 2.264791 254 243 237
0.230510 0.649524 2.292724 64 50 49
1.127046 -0.956387 2.249118 236 222 213
0.615495 0.108786 2.283686 101 83 81
0.406511 1.127581 2.264545 58 59 61
0.599100 -0.799463 2.256695 255 248 237
0.437554 0.330120 2.293549 80 71 66
0.309137 -0.121015 2.281343 242 214 211
0.970627 0.328626 2.278479 85 76 71
-0.181272 1.119164 2.261118 53 58 78
0.215161 -0.492003 2.269667 188 181 165
0.012966 -0.399152 2.272977 187 178 171
0.818085 -0.158727 2.274939 232 213 198
-0.174372 -0.638484 2.257401 67 28 33
0.763582 -0.306366 2.275357 230 221 206
-0.148707 0.402540 2.288078 51 41 32
0.697163 -0.321895 2.273101 255 247 229
0.044935 -0.733746 2.266495 53 42 38
-0.127683 1.105136 2.261858 47 51 54
1.039836 -0.069493 2.276217 56 42 42
0.651734 0.333192 2.291297 92 83 78
0.528465 0.012226 2.282290 255 255 246
-0.173989 0.406066 2.276656 255 242 236
1.158021 -0.231012 2.273671 66 51 46
0.938475 0.005344 2.276072 35 25 23
-0.046803 0.322480 2.288786 89 74 67
0.916332 0.096427 2.279464 255 253 250
0.682497 -1.059550 2.244867 221 202 198
-0.155250 0.810818 2.282016 231 224 218
-0.085649 -0.083969 2.278389 67 56 52
0.258755 -0.660999 2.261018 228 209 195
0.691526 0.744611 2.285768 254 255 245
0.571505 -0.239418 2.284258 89 80 75
0.332270 0.813894 2.291013 51 43 40
0.046464 0.885516 2.284008 82 71 67
0.884522 1.212121 2.205343 72 70 71
-0.114484 -0.655032 2.259733 42 34 31
0.777776 -0.073094 2.281676 77 63 62
0.312511 1.293748 2.202693 207 228 221
0.230538 0.076862 2.285450 208 201 191
0.716720 -0.078650 2.278173 247 226 221
0.558895 0.167904 2.291592 79 68 62
0.701685 -1.123011 2.244107 226 214 200
0.528235 0.728275 2.287678 223 212 206
0.384182 -0.698572 2.259413 250 231 225
0.285661 -0.224708 2.279276 255 247 237
1.011420 0.252344 2.281656 87 76 74
1.147820 -0.989127 2.249911 82 62 63
1.094440 0.262097 2.274306 244 231 222
0.867610 -0.075541 2.273924 233 224 219
0.771087 0.663474 2.283512 241 239 227
0.371675 0.894769 2.288806 62 62 62
0.461011 -0.229635 2.277317 213 193 186
0.732040 -0.460950 2.268559 64 43 40
-0.243343 0.729527 2.282080 241 236 233
0.401041 -0.099446 2.282666 255 241 233
0.507066 1.060825 2.262749 41 41 43
0.494107 -0.567338 2.267810 211 193 183
0.535144 -0.797009 2.254527 247 222 217
0.384791 -0.798353 2.257508 237 210 203
0.275416 0.402446 2.286301 222 207 200
0.638216 0.371146 2.284601 255 248 243
0.555110 -0.158638 2.283356 64 60 51
0.892750 0.820117 2.288837 56 47 38
0.087299 -0.635711 2.261080 99 70 64
0.350281 0.996064 2.261544 35 35 35
0.706842 -1.304390 2.233726 181 180 175
0.675743 1.209796 2.207981 57 57 55
0.756717 0.365515 2.281436 116 102 93
-0.183827 -0.236534 2.267927 241 207 205
0.418342 -0.002013 2.283782 241 217 205
0.820076 0.650720 2.280146 243 231 217
1.078577 0.249897 2.272356 255 245 237
0.311608 0.090486 2.288248 253 246 238
1.035599 1.191753 2.198979 83 92 91
0.824106 -0.077911 2.276528 241 227 218
1.134503 0.101683 2.270869 255 253 248
-0.233880 -0.563158 2.262397 255 252 241
1.002470 0.091069 2.279260 91 77 77
1.100445 -0.945444 2.246232 251 222 218
1.008460 0.751180 2.282177 198 206 208
-0.108185 0.849827 2.284029 55 53 54
0.195042 0.235487 2.287763 255 235 221
0.884457 0.743724 2.276932 230 230 222
0.408589 0.743646 2.289134 91 61 59
0.413737 -0.179515 2.278372 113 95 81
0.551004 0.896395 2.288867 83 86 77
0.923975 -0.881857 2.250617 53 46 38
0.229670 -0.374285 2.276663 61 50 56
0.596605 -0.162554 2.279229 225 219 205
-0.189546 -0.483307 2.263757 255 255 240
0.467167 1.286417 2.206984 27 28 32
0.336527 -0.294658 2.278753 249 235 232
-0.271083 -0.560096 2.261377 100 81 75
0.439025 0.584162 2.288764 255 254 255
0.083127 -0.063092 2.276509 240 221 215
0.696661 0.423770 2.285076 143 119 117
-0.149115 -0.477427 2.262821 116 86 84
0.332392 0.577147 2.290682 241 235 237
-0.250630 0.571267 2.278037 242 242 234
0.401031 -0.229816 2.280615 255 248 239
0.283621 -0.719996 2.258303 255 248 235
-0.037563 0.153985 2.281720 235 212 206
0.761420 -1.125135 2.241843 255 250 236
1.148493 -0.552134 2.264033 75 60 53
0.789894 0.422035 2.287245 250 245 241
0.498629 -0.801250 2.254889 255 233 228
0.902200 -0.069523 2.277398 65 51 48
0.984287 0.585293 2.277629 98 73 68
0.804516 0.761668 2.282149 250 245 242
0.006488 0.728728 2.288105 63 55 53
0.463781 -0.368484 2.273665 243 225 213
0.769294 0.743045 2.284324 255 255 248
0.885081 -0.319128 2.268788 236 209 190
0.363244 -0.395249 2.273530 255 252 246
0.084979 0.011135 2.281530 254 253 249
-0.101346 0.654481 2.285138 214 207 201
0.560245 -1.289226 2.237127 240 237 230
0.203895 0.401360 2.284493 240 221 214
1.091438 0.103101 2.272289 100 79 76
0.590388 -0.047122 2.280274 252 233 226
1.064306 -0.159193 2.268090 89 75 66
0.893011 0.097758 2.281206 222 218 209
-0.326208 0.570546 2.279094 255 251 250
0.325937 1.119816 2.258487 244 254 255
0.857512 -1.205536 2.239498 255 254 246
0.455198 -0.337552 2.275896 255 251 241
0.006492 0.329155 2.282613 255 252 246
0.391927 0.000819 2.284356 44 30 27
0.295234 0.076774 2.285754 249 225 215
0.219805 0.645687 2.291827 94 81 73
0.829095 -0.066782 2.276869 255 255 243
0.710092 -1.123893 2.241149 96 79 72
0.797257 0.743697 2.283032 255 254 245
0.603555 -1.207850 2.237704 68 48 41
0.797575 -0.312963 2.275472 59 52 46
0.707351 0.650203 2.281949 244 232 216
0.114293 0.319422 2.282705 55 45 36
0.052029 0.900279 2.275831 244 255 255
0.863462 -0.549628 2.262532 255 252 248
0.807804 0.759770 2.283634 72 61 59
1.016247 0.076214 2.273947 77 63 63
0.393022 0.034911 2.282793 109 89 82
1.099249 0.332714 2.277826 255 240 227
0.636569 -0.961010 2.245269 248 236 224
-0.225445 0.809588 2.284944 255 251 250
1.168503 0.742398 2.285254 56 45 39
1.187979 0.251800 2.271709 253 234 227
0.667255 -0.479559 2.276953 90 77 68
0.575470 -0.606105 2.266898 62 50 52
-0.106735 -0.237995 2.271075 125 91 92
0.055930 -0.251416 2.275687 248 235 227
0.256617 -0.963765 2.248748 135 106 100
-0.113685 -0.156553 2.271676 241 226 207
1.041761 -1.019117 2.246087 66 51 48
-0.091110 -0.409885 2.265230 85 78 70
0.290372 -0.627223 2.263473 58 27 22
0.926286 0.448958 2.277386 106 81 74
1.174267 0.735248 2.279799 245 237 235
-0.063994 -0.560421 2.262191 255 253 244
0.387566 0.000441 2.284303 39 26 20
0.879358 0.664791 2.282843 254 251 244
0.313118 -0.119097 2.281896 246 225 220
0.411116 0.010930 2.282097 255 251 248
0.738085 -0.458177 2.269077 81 58 50
0.350281 0.996064 2.261544 35 35 35
0.789372 0.086534 2.285589 82 73 68
0.579896 -0.098996 2.278138 73 48 41
-0.072409 -0.973759 2.248696 255 240 230
0.923604 0.578777 2.285806 52 37 40
-0.234007 -0.494338 2.261687 46 40 40
0.461130 -0.463939 2.271780 255 249 240
0.766182 -0.977276 2.249331 207 179 167
-0.019150 0.732247 2.282340 251 242 233
0.974758 0.379885 2.275017 240 225 218
0.590470 0.174994 2.283373 255 253 237
0.382869 0.419363 2.285686 84 56 53
0.636187 1.129691 2.259974 68 68 80
0.004784 0.079532 2.280683 68 61 55
-0.198018 -0.401181 2.266158 78 48 50
0.009080 -0.488540 2.265263 98 88 79
0.092205 -0.538577 2.264755 255 235 227
0.209139 1.125969 2.258037 241 255 255
0.295690 0.237838 2.285393 251 232 218
0.644329 -0.157893 2.285070 77 69 66
1.100255 -0.947190 2.246049 67 46 43
0.662035 -1.043459 2.245705 255 252 237
0.586635 1.132780 2.261920 233 255 255
0.131053 0.010357 2.281929 255 253 243
0.731651 1.131978 2.259589 57 68 74
0.992210 0.253682 2.283807 78 69 62
0.148015 -0.634405 2.262197 85 47 38
0.258443 -0.153157 2.280969 255 252 241
0.763655 -0.227351 2.276342 255 252 243
0.757149 -0.241197 2.275719 233 216 208
0.690380 1.293465 2.201322 249 255 255
0.924825 -0.991835 2.250771 77 73 74
0.694430 0.490193 2.285452 214 197 189
0.376074 0.887828 2.285132 232 232 224
0.505983 1.121122 2.260537 84 90 102
0.373721 0.577183 2.285762 255 252 246
0.382052 0.159661 2.287701 240 226 213
-0.052889 -0.480670 2.264174 244 236 223
1.015915 0.822423 2.288875 43 39 40
0.461609 0.885889 2.285392 198 189 184
0.459122 -0.336360 2.277559 61 55 57
1.105270 -1.038782 2.244165 254 233 214
0.956321 -0.237912 2.271550 249 240 233
0.790769 0.498039 2.285804 65 57 54
1.169385 0.733410 2.281799 239 230 225
0.438742 -0.041842 2.283896 255 253 244
0.690730 0.000577 2.280834 253 240 234
0.569752 -0.203386 2.275336 255 244 237
0.447602 -0.811272 2.262007 75 65 56
0.287582 -0.227921 2.280286 87 69 59
0.683808 -1.037299 2.244327 255 245 228
0.908165 0.101247 2.279080 93 88 92
0.461490 -0.473021 2.273898 255 252 237
1.055487 -0.143846 2.269732 255 249 242
-0.119621 0.956021 2.260585 209 210 212
-0.232468 0.808765 2.283724 225 226 221
0.552189 -1.045955 2.245276 255 247 237
1.019614 0.584274 2.277872 255 254 239
0.906626 0.098101 2.279323 255 251 252
0.451495 -0.963143 2.249306 255 253 243
-0.116074 -0.641053 2.257276 255 252 246
0.007603 0.640961 2.283358 216 190 175
-0.101803 -0.653059 2.268979 88 79 72
0.410499 -0.065175 2.282012 255 249 246
0.900813 0.098061 2.279786 255 255 253
0.213477 -0.191269 2.282776 253 252 250
0.455933 0.726657 2.289811 216 198 188
0.290372 -0.627223 2.263473 58 27 22
0.110252 -0.256997 2.279253 73 62 60
0.589747 -0.796693 2.255271 234 207 198
0.479256 0.362527 2.283778 81 54 47
-0.220008 -0.167948 2.272409 58 47 41
1.002405 0.665400 2.278848 242 242 234
0.555999 -0.000786 2.280470 40 31 24
0.057474 0.170806 2.282235 108 88 87
-0.010168 0.733596 2.284358 255 254 253
1.196283 -0.887685 2.243641 241 227 216
-0.077064 -0.462504 2.262990 83 67 54
0.274030 -0.638354 2.265520 242 228 219
0.857097 -0.959967 2.248123 255 246 233
1.012068 0.715913 2.281725 255 242 229
0.991572 -0.553488 2.265512 59 45 42
0.076172 0.575417 2.286635 244 245 237
0.179247 0.532694 2.285870 240 223 216
0.914168 0.780749 2.282285 241 236 233
1.028414 -0.407118 2.265907 82 68 67
0.220621 -0.969747 2.254745 255 252 247
0.131099 -0.897922 2.260895 50 45 41
0.575300 -0.605720 2.265404 62 50 52
0.660208 -0.096135 2.278592 255 254 244
0.236342 -0.502828 2.271605 83 79 78
0.949810 0.325431 2.278258 66 46 37
0.974378 0.898314 2.281359 72 71 69
0.287160 -0.632142 2.263379 63 38 33
0.552478 0.345426 2.291345 61 45 48
-0.225738 0.407838 2.280484 255 253 247
0.910714 0.751053 2.284270 74 61 68
0.787241 0.651347 2.282556 242 229 213
